58 59 60 61 62 63 64 65 66 67 68 69 70 71 72 73 74 75 76 77 78 79 80 81 82 83 84 85 86 87 88 89 90 91 92 93 94 95 96 97 98 99 100 101 102 103 104 104.637 103.856 103.078 102.303 101.533 100.767 100 99.2018 98.4073 97.6166 96.8298 96.0469 95.268 94.4934 93.723 92.957 92.1954 91.4385 90.6863 89.9389 89.1964 88.4081 87.6185 86.8332 86.0523 85.276 84.5044 83.7377 82.9759 82.2192 81.4678 80.7217 79.9812 79.2465 78.5175 77.7946 77.0779 76.3675 75.6637 74.9533 74.2496 73.5391 72.8354 72.1249 71.4213 70.7107 70.0071 69.2965 68.593 67.8822 67.1789 66.468 65.7647 65.0538 64.3506 63.6396 62.9365 62.2254 61.5224 60.8112 60.1082 59.397 58.6941 58 57.28 56.5685 55.8659 55.1725 54.4885 53.8145 53.1507 52.4976 51.8556 51.225 50.6063 50 49.4065 48.7955 48.1041 47.4236 46.7547 46.0977 45.4533 44.8219 44.2041 43.6005 43.0116 42.4382 41.8808 41.3401 40.8044 40.2244 39.6611 39.0512 38.4187 37.8021 37.2022 36.6197 36.0555 35.5106 34.9857 34.4093 33.8378 33.2866 32.7567 32.2025 31.6228 31.0644 30.5287 30.0167 29.5296 29.0689 28.6356 28.178 27.7308 27.2947 26.8328 26.4008 25.807 25.2389 24.6982 24.1868 23.7065 23.2594 22.8254 22.3607 21.9317 21.4709 21.0238 20.5913 20.1246 19.6977 19.3132 18.9737 18.6815 18.3576 17.8885 17.4642 17 16.5529 16.1245 15.6525 15.2315 14.8661 14.5602 14.3178 13.9284 13.6015 13.3417 13 12.53 12.083 11.7047 11.4018 11.1803 11.0454 10.7703 10.4403 10.198 9.84886 9.48683 9.21954 8.94427 8.544 8.24621 8.06226 8 7.61577 7.28011 7.07107 7 6.7082 6.32456 6.08276 6 6 5.83095 5.38516 5.09902 5 5 5 4.47214 4.12311 4 4 4 4 3.60555 3.16228 3 3 3 3 3 3 2.82843 2.23607 2 2 2 2 2 2 2 2 2 2 2 2 1.41421 1 1 1 1 1 1 1 1 1 1 1 1 1 1 1 1 1 1 1 1 1 1 1 1 1 1.41421 2 2 2 2 2 2 2 2 2 2 2 2 2 2.23607 2.82843 3 3 3 3 3 3 3 3.16228 3.60555 4 4 4 4 4 4.12311 4.47214 5 5 5 5 5 5.09902 5.38516 5.83095 6 6 6 6.08276 6.32456 6.7082 7 7.07107 7.28011 7.61577 8 8 8.06226 8.24621 8.544 8.94427 9 9.05539 9.21954 9.48683 9.84886 10.0499 10.198 10.4403 10.7703 11.0454 11.1803 11.4018 11.7047 12.0416 12.1655 12.3693 12.6491 13 13.3417 13.6015 13.9284 14.1421 14.3178 14.5602 14.8661 15.2315 15.5242 15.8114 16.1245 16.2788 16.4924 16.7631 17.088 17 16.1245 15.2315 14.3178 13.4164 12.53 11.6619 10.7703 9.84886 8.94427 8.06226 7.2111 6.40312 5.65685 5 4.12311 3.16228 2.23607 1.41421 1 0 1 1.41421 2.23607 3.16228 4.12311 5 5.83095 6.7082 7.61577 8.544 9.43398 10.2956 9.84886 8.94427 8.06226 7.2111 6.32456 5.38516 4.47214 3.60555 2.82843 2 1 0 0 1 2 2.82843 3.60555 4.47214 5.38516 6.32456 7.07107 7.81025 8.60233 9.43398 10.2956 11.1803 12.083 13 13.8924 14.7648 15.6525 16.5529 17.4642 18.3576 19.2354 20.1246 21.0238 21.9317 22.8254 23.7065 24.5967 25.4951 26.4008 27.2029 28.0179 28.8444 29.6816 30.5287 31.3847 32.249 33.121 34 34.8855 35.7771 36.6197 37.4433 38.2753 39.1152 39.9625 40.8167 41.6773 42.5441 43.4166 44.2945 45.1774 46.0435 46.8722 47.7074 48.5489 49.3964 50.2494 51.1077 51.9711 52.8394 53.7122 54.5894 55.4707 56.3028 57.1402 57.9828 58.8218 59.6406 60.4649 61.2944 62.1289 62 61 60 59 58 57 56 55 54 53 52 51 50 49 48 47 46 45 44 43 42 41 40 39 38 37 36 35 34 33 32 31 30 29 28 27 26 25 24 23 22 21 20 19 18 17
58 59 60 61 62 63 64 65 66 67 68 69 70 71 72 73 74 75 76 77 78 79 80 81 82 83 84 85 86 87 88 89 90 91 92 93 94 95 96 97 98 99 100 101 102 103 104 105 104.484 103.711 102.942 102.176 101.4 100.603 99.8098 99.0202 98.2344 97.4526 96.6747 95.901 95.1315 94.3663 93.6056 92.8493 92.0978 91.351 90.6035 89.8109 89.0225 88.2383 87.4586 86.6833 85.9128 85.1469 84.386 83.6301 82.8794 82.134 81.3941 80.6598 79.9312 79.2086 78.492 77.7817 77.0779 76.3675 75.6637 74.9533 74.2496 73.5391 72.8354 72.1249 71.4213 70.7107 70.0071 69.2965 68.593 67.8822 67.1789 66.468 65.7647 65.0538 64.3506 63.6396 62.9365 62.2254 61.5224 60.8112 60.1082 59.4138 58.6941 57.9828 57.28 56.5862 55.9017 55.2268 54.5619 53.9073 53.2635 52.6308 52.0096 51.4004 50.8035 50.2096 49.5177 48.8365 48.1664 47.5079 46.8615 46.2277 45.607 45 44.4072 43.8292 43.2666 42.72 42.19 41.6173 41.0488 40.4599 39.8246 39.2046 38.6005 38.0132 37.4433 36.8917 36.3593 35.805 35.2278 34.6699 34.1321 33.6006 33.0151 32.45 31.9061 31.3847 30.8869 30.4138 29.9666 29.5296 29.0689 28.6356 28.178 27.7308 27.2029 26.6271 26.0768 25.5539 25.0599 24.5967 24.1661 23.7065 23.2594 22.8254 22.3607 21.9317 21.4709 21.0238 20.6155 20.2485 19.9249 19.6469 19.2354 18.7883 18.3576 17.8885 17.4642 17 16.5529 16.1555 15.8114 15.5242 15.2315 14.8661 14.5602 14.3178 13.8924 13.4164 13 12.6491 12.3693 12.1655 12.0416 11.7047 11.4018 11.1803 10.7703 10.4403 10.198 9.84886 9.48683 9.21954 9.05539 8.94427 8.544 8.24621 8.06226 8 7.61577 7.28011 7.07107 7 7 6.7082 6.32456 6.08276 6 6 5.83095 5.38516 5.09902 5 5 5 5 4.47214 4.12311 4 4 4 4 4 4 3.60555 3.16228 3 3 3 3 3 3 3 3 3 3 3 2.82843 2.23607 2 2 2 2 2 2 2 2 2 2 2 2 2 2 2 2 2 2 2 2 2 2 2 2 2 2.23607 2.82843 3 3 3 3 3 3 3 3 3 3 3 3 3.16228 3.60555 4 4 4 4 4 4 4 4.12311 4.47214 5 5 5 5 5 5.09902 5.38516 5.83095 6 6 6 6 6.08276 6.32456 6.7082 7 7 7 7.07107 7.28011 7.61577 8 8.06226 8.24621 8.544 8.94427 9 9.05539 9.21954 9.48683 9.84886 10 10.0499 10.198 10.4403 10.7703 11.0454 11.1803 11.4018 11.7047 12.0416 12.1655 12.3693 12.6491 13 13.1529 13.3417 13.6015 13.9284 14.3178 14.5602 14.8661 15.1327 15.2971 15.5242 15.8114 16.1555 16.4924 16.7631 17.088 17.2627 17.4642 17.72 18.0278 17.4642 16.5529 15.6525 14.7648 13.8924 13 12.083 11.1803 10.2956 9.43398 8.60233 7.81025 7.07107 6.32456 5.38516 4.47214 3.60555 2.82843 2 1 0 0 1 2 2.82843 3.60555 4.47214 5.38516 6.32456 7.2111 8.06226 8.94427 9.84886 10.2956 9.43398 8.544 7.61577 6.7082 5.83095 5 4.12311 3.16228 2.23607 1.41421 1 0 1 1.41421 2.23607 3.16228 4.12311 5 5.65685 6.40312 7.2111 8.06226 8.94427 9.84886 10.7703 11.6619 12.53 13.4164 14.3178 15.2315 16.1245 17 17.8885 18.7883 19.6977 20.5913 21.4709 22.3607 23.2594 24.1661 25 25.807 26.6271 27.4591 28.3019 29.1548 30.0167 30.8869 31.7648 32.6497 33.541 34.4093 35.2278 36.0555 36.8917 37.7359 38.5876 39.4462 40.3113 41.1825 42.0595 42.9418 43.8292 44.6542 45.4863 46.3249 47.1699 48.0208 48.8774 49.7393 50.6063 51.4781 52.3546 53.2353 54.0833 54.9181 55.7584 56.6039 57.4282 58.2495 59.0762 59.9083 60.7454 61.5873 62 61 60 59 58 57 56 55 54 53 52 51 50 49 48 47 46 45 44 43 42 41 40 39 38 37 36 35 34 33 32 31 30 29 28 27 26 25 24 23 22 21 20 19 18 17
58 59 60 61 62 63 64 65 66 67 68 69 70 71 72 73 74 75 76 77 78 79 80 81 82 83 84 85 86 87 88 89 90 91 92 93 94 95 96 97 98 99 100 101 102 103 104 105 105.119 104.35 103.586 102.801 102.005 101.213 100.424 99.6394 98.8585 98.0816 97.3088 96.5401 95.7758 95.0158 94.2603 93.5094 92.7631 92.0054 91.214 90.4268 89.6437 88.8651 88.0909 87.3212 86.5563 85.7963 85.0412 84.2912 83.5464 82.807 82.0731 81.3449 80.6226 79.9062 79.196 78.492 77.7817 77.0779 76.3675 75.6637 74.9533 74.2496 73.5391 72.8354 72.1249 71.4213 70.7107 70.0071 69.2965 68.593 67.8822 67.1789 66.468 65.7647 65.0538 64.3506 63.6396 62.9365 62.2254 61.5224 60.8276 60.1082 59.397 58.6941 58 57.3149 56.6392 55.9732 55.3173 54.6717 54.037 53.4135 52.8015 52.2015 51.614 50.9313 50.2494 49.5782 48.9183 48.2701 47.634 47.0106 46.4004 45.8039 45.2217 44.6542 44.1022 43.566 43.0116 42.4382 41.8688 41.2311 40.6079 40 39.4081 38.833 38.2753 37.7359 37.2022 36.6197 36.0555 35.5106 34.9857 34.4093 33.8378 33.2866 32.7567 32.249 31.7648 31.305 30.8707 30.4138 29.9666 29.5296 29.0689 28.6007 28.0179 27.4591 26.9258 26.4197 25.9422 25.4951 25.0599 24.5967 24.1661 23.7065 23.2594 22.8254 22.3607 21.9317 21.5407 21.1896 20.8806 20.5913 20.1246 19.6977 19.2354 18.7883 18.3576 17.8885 17.4642 17.088 16.7631 16.4924 16.1555 15.8114 15.5242 15.2315 14.7648 14.3178 13.9284 13.6015 13.3417 13.1529 13 12.6491 12.3693 12.083 11.7047 11.4018 11.1803 10.7703 10.4403 10.198 10.0499 9.84886 9.48683 9.21954 9.05539 8.94427 8.544 8.24621 8.06226 8 8 7.61577 7.28011 7.07107 7 7 6.7082 6.32456 6.08276 6 6 6 5.83095 5.38516 5.09902 5 5 5 5 5 5 4.47214 4.12311 4 4 4 4 4 4 4 4 4 4 4 3.60555 3.16228 3 3 3 3 3 3 3 3 3 3 3 3 3 3 3 3 3 3 3 3 3 3 3 3 3 3.16228 3.60555 4 4 4 4 4 4 4 4 4 4 4 4 4.12311 4.47214 5 5 5 5 5 5 5 5.09902 5.38516 5.83095 6 6 6 6 6.08276 6.32456 6.7082 7 7 7 7 7.07107 7.28011 7.61577 8 8 8 8.06226 8.24621 8.544 8.94427 9.05539 9.21954 9.48683 9.84886 10 10.0499 10.198 10.4403 10.7703 11 11.0454 11.1803 11.4018 11.7047 12.0416 12.1655 12.3693 12.6491 13 13.1529 13.3417 13.6015 13.9284 14.1421 14.3178 14.5602 14.8661 15.2315 15.5242 15.8114 16.1245 16.2788 16.4924 16.7631 17.088 17.4642 17.72 18.0278 18.2483 18.4391 18.6815 18.7883 17.8885 17 16.1245 15.2315 14.3178 13.4164 12.53 11.6619 10.8167 10 9.21954 8.48528 7.61577 6.7082 5.83095 5 4.12311 3.16228 2.23607 1.41421 1 0 1 1.41421 2.23607 3.16228 4.12311 5 5.83095 6.7082 7.61577 8.544 9.43398 10.2956 9.84886 8.94427 8.06226 7.2111 6.32456 5.38516 4.47214 3.60555 2.82843 2 1 0 0 1 2 2.82843 3.60555 4.24264 5 5.83095 6.7082 7.61577 8.544 9.43398 10.2956 11.1803 12.083 13 13.8924 14.7648 15.6525 16.5529 17.4642 18.3576 19.2354 20.1246 21.0238 21.9317 22.8035 23.6008 24.4131 25.2389 26.0768 26.9258 27.7849 28.6531 29.5296 30.4138 31.305 32.2025 33.0151 33.8378 34.6699 35.5106 36.3593 37.2156 38.0789 38.9487 39.8246 40.7063 41.5933 42.4382 43.2666 44.1022 44.9444 45.793 46.6476 47.5079 48.3735 49.2443 50.1199 51 51.8652 52.6973 53.535 54.3783 55.2178 56.0357 56.8595 57.6888 58.5235 59.3633 60.208 61.0574 61.9112 61 60 59 58 57 56 55 54 53 52 51 50 49 48 47 46 45 44 43 42 41 40 39 38 37 36 35 34 33 32 31 30 29 28 27 26 25 24 23 22 21 20 19 18 17
58 59 60 61 62 63 64 65 66 67 68 69 70 71 72 73 74 75 76 77 78 79 80 81 82 83 84 85 86 87 88 89 90 91 92 93 94 95 96 97 98 99 100 101 102 103 104 105 105.759 104.995 104.202 103.407 102.616 101.828 101.045 100.265 99.4887 98.7168 97.949 97.1854 96.4261 95.6713 94.921 94.1754 93.4077 92.6175 91.8314 91.0494 90.2718 89.4986 88.7299 87.9659 87.2066 86.4523 85.703 84.9588 84.2199 83.4865 82.7587 82.0366 81.3204 80.6102 79.9062 79.196 78.492 77.7817 77.0779 76.3675 75.6637 74.9533 74.2496 73.5391 72.8354 72.1249 71.4213 70.7107 70.0071 69.2965 68.593 67.8822 67.1789 66.468 65.7647 65.0538 64.3506 63.6396 62.9365 62.2415 61.5224 60.8112 60.1082 59.4138 58.7282 58.0517 57.3847 56.7274 56.0803 55.4437 54.8179 54.2033 53.6004 53.0094 52.345 51.6624 50.9902 50.3289 49.679 49.0408 48.4149 47.8017 47.2017 46.6154 46.0435 45.4863 44.9444 44.4072 43.8292 43.2666 42.638 42.0119 41.4005 40.8044 40.2244 39.6611 39.1152 38.5876 38.0132 37.4433 36.8917 36.3593 35.805 35.2278 34.6699 34.1321 33.6155 33.121 32.6497 32.2025 31.7648 31.305 30.8707 30.4138 29.9666 29.4109 28.8444 28.3019 27.7849 27.2947 26.8328 26.4008 25.9422 25.4951 25.0599 24.5967 24.1661 23.7065 23.2594 22.8473 22.4722 22.1359 21.8403 21.4709 21.0238 20.5913 20.1246 19.6977 19.2354 18.7883 18.3848 18.0278 17.72 17.4642 17.088 16.7631 16.4924 16.1245 15.6525 15.2315 14.8661 14.5602 14.3178 14.1421 13.9284 13.6015 13.3417 13 12.6491 12.3693 12.083 11.7047 11.4018 11.1803 11.0454 10.7703 10.4403 10.198 10.0499 9.84886 9.48683 9.21954 9.05539 9 8.94427 8.544 8.24621 8.06226 8 8 7.61577 7.28011 7.07107 7 7 7 6.7082 6.32456 6.08276 6 6 6 6 6 5.83095 5.38516 5.09902 5 5 5 5 5 5 5 5 5 5 5 4.47214 4.12311 4 4 4 4 4 4 4 4 4 4 4 4 4 4 4 4 4 4 4 4 4 4 4 4 4 4.12311 4.47214 5 5 5 5 5 5 5 5 5 5 5 5 5.09902 5.38516 5.83095 6 6 6 6 6 6 6.08276 6.32456 6.7082 7 7 7 7 7.07107 7.28011 7.61577 8 8 8 8 8.06226 8.24621 8.544 8.94427 9 9 9.05539 9.21954 9.48683 9.84886 10.0499 10.198 10.4403 10.7703 11 11.0454 11.1803 11.4018 11.7047 12 12.0416 12.1655 12.3693 12.6491 13 13.1529 13.3417 13.6015 13.9284 14.1421 14.3178 14.5602 14.8661 15.1327 15.2971 15.5242 15.8114 16.1555 16.4924 16.7631 17.088 17.2627 17.4642 17.72 18.0278 18.3848 18.6815 18.9737 19.2354 19.4165 19.6469 19.2354 18.3576 17.4642 16.5529 15.6525 14.7648 13.8924 13.0384 12.2066 11.4018 10.6301 9.84886 8.94427 8.06226 7.2111 6.32456 5.38516 4.47214 3.60555 2.82843 2 1 0 0 1 2 2.82843 3.60555 4.47214 5.38516 6.32456 7.2111 8.06226 8.94427 9.84886 10.2956 9.43398 8.544 7.61577 6.7082 5.83095 5 4.12311 3.16228 2.23607 1.41421 1 0 1 1.41421 2.23607 2.82843 3.60555 4.47214 5.38516 6.32456 7.2111 8.06226 8.94427 9.84886 10.7703 11.6619 12.53 13.4164 14.3178 15.2315 16.1245 17 17.8885 18.7883 19.6977 20.5913 21.4009 22.2036 23.0217 23.8537 24.6982 25.5539 26.4197 27.2947 28.178 29.0689 29.9666 30.8058 31.6228 32.45 33.2866 34.1321 34.9857 35.8469 36.7151 37.5899 38.4708 39.3573 40.2244 41.0488 41.8808 42.72 43.566 44.4185 45.2769 46.1411 47.0106 47.8853 48.7647 49.6488 50.4777 51.3128 52.1536 53 53.8238 54.6443 55.4707 56.3028 57.1402 57.9828 58.8303 59.6825 60.5392 61.4003 61 60 59 58 57 56 55 54 53 52 51 50 49 48 47 46 45 44 43 42 41 40 39 38 37 36 35 34 33 32 31 30 29 28 27 26 25 24 23 22 21 20 19 18 17
58 59 60 61 62 63 64 65 66 67 68 69 70 71 72 73 74 75 76 77 78 79 80 81 82 83 84 85 86 87 88 89 90 91 92 93 94 95 96 97 98 99 100 101 102 103 104 105 106 105.603 104.809 104.019 103.233 102.45 101.671 100.896 100.125 99.3579 98.5951 97.8366 97.0824 96.3328 95.5877 94.8103 94.0213 93.2363 92.4554 91.6788 90.9065 90.1388 89.3756 88.6172 87.8635 87.1149 86.3713 85.6329 84.8999 84.1724 83.4506 82.7345 82.0244 81.3204 80.6102 79.9062 79.196 78.492 77.7817 77.0779 76.3675 75.6637 74.9533 74.2496 73.5391 72.8354 72.1249 71.4213 70.7107 70.0071 69.2965 68.593 67.8822 67.1789 66.468 65.7647 65.0538 64.3506 63.6553 62.9365 62.2254 61.5224 60.8276 60.1415 59.4643 58.7963 58.1378 57.4891 56.8507 56.2228 55.6058 55 54.4059 53.7587 53.0754 52.4023 51.7397 51.0882 50.448 49.8197 49.2037 48.6004 48.0104 47.4342 46.8722 46.3249 45.793 45.2217 44.6542 44.0454 43.4166 42.8019 42.2019 41.6173 41.0488 40.4969 39.9625 39.4081 38.833 38.2753 37.7359 37.2022 36.6197 36.0555 35.5106 34.9857 34.4819 34 33.541 33.1059 32.6497 32.2025 31.7648 31.305 30.8058 30.2324 29.6816 29.1548 28.6531 28.178 27.7308 27.2947 26.8328 26.4008 25.9422 25.4951 25.0599 24.5967 24.1661 23.7697 23.4094 23.0868 22.8035 22.3607 21.9317 21.4709 21.0238 20.5913 20.1246 19.6977 19.3132 18.9737 18.6815 18.3848 18.0278 17.72 17.4642 17 16.5529 16.1555 15.8114 15.5242 15.2971 15.1327 14.8661 14.5602 14.3178 13.9284 13.6015 13.3417 13 12.6491 12.3693 12.1655 12.0416 11.7047 11.4018 11.1803 11.0454 10.7703 10.4403 10.198 10.0499 10 9.84886 9.48683 9.21954 9.05539 9 8.94427 8.544 8.24621 8.06226 8 8 8 7.61577 7.28011 7.07107 7 7 7 7 7 6.7082 6.32456 6.08276 6 6 6 6 6 6 6 6 6 6 5.83095 5.38516 5.09902 5 5 5 5 5 5 5 5 5 5 5 5 5 5 5 5 5 5 5 5 5 5 5 5 5 5.09902 5.38516 5.83095 6 6 6 6 6 6 6 6 6 6 6 6.08276 6.32456 6.7082 7 7 7 7 7 7 7.07107 7.28011 7.61577 8 8 8 8 8.06226 8.24621 8.544 8.94427 9 9 9 9.05539 9.21954 9.48683 9.84886 10 10 10.0499 10.198 10.4403 10.7703 11.0454 11.1803 11.4018 11.7047 12 12.0416 12.1655 12.3693 12.6491 13 13.0384 13.1529 13.3417 13.6015 13.9284 14.1421 14.3178 14.5602 14.8661 15.1327 15.2971 15.5242 15.8114 16.1245 16.2788 16.4924 16.7631 17.088 17.4642 17.72 18.0278 18.2483 18.4391 18.6815 18.9737 19.3132 19.6469 19.9249 20.2237 20.3961 20.5913 19.6977 18.7883 17.8885 17 16.1245 15.2643 14.4222 13.6015 12.8062 12.0416 11.1803 10.2956 9.43398 8.544 7.61577 6.7082 5.83095 5 4.12311 3.16228 2.23607 1.41421 1 0 1 1.41421 2.23607 3.16228 4.12311 5 5.83095 6.7082 7.61577 8.544 9.43398 10.2956 9.84886 8.94427 8.06226 7.2111 6.32456 5.38516 4.47214 3.60555 2.82843 2 1 0 0 1 1.41421 2.23607 3.16228 4.12311 5 5.83095 6.7082 7.61577 8.544 9.43398 10.2956 11.1803 12.083 13 13.8924 14.7648 15.6525 16.5529 17.4642 18.3576 19.2094 20 20.8087 21.6333 22.4722 23.3238 24.1868 25.0599 25.9422 26.8328 27.7308 28.6007 29.4109 30.2324 31.0644 31.9061 32.7567 33.6155 34.4819 35.3553 36.2353 37.1214 38.0132 38.833 39.6611 40.4969 41.3401 42.19 43.0465 43.909 44.7772 45.6508 46.5296 47.4131 48.2597 49.0918 49.93 50.774 51.614 52.4309 53.2541 54.0833 54.9181 55.7584 56.6039 57.4543 58.3095 59.1693 60 60.803 61 60 59 58 57 56 55 54 53 52 51 50 49 48 47 46 45 44 43 42 41 40 39 38 37 36 35 34 33 32 31 30 29 28 27 26 25 24 23 22 21 20 19 18 17
58 59 60 61 62 63 64 65 66 67 68 69 70 71 72 73 74 75 76 77 78 79 80 81 82 83 84 85 86 87 88 89 90 91 92 93 94 95 96 97 98 99 100 101 102 103 104 105 106 106.212 105.423 104.637 103.856 103.078 102.303 101.533 100.767 100.005 99.2472 98.4937 97.7446 97 96.2133 95.4254 94.6414 93.8616 93.086 92.3147 91.5478 90.7855 90.0278 89.2749 88.5268 87.7838 87.046 86.3134 85.5862 84.8646 84.1487 83.4386 82.7345 82.0244 81.3204 80.6102 79.9062 79.196 78.492 77.7817 77.0779 76.3675 75.6637 74.9533 74.2496 73.5391 72.8354 72.1249 71.4213 70.7107 70.0071 69.2965 68.593 67.8822 67.1789 66.468 65.7647 65.0692 64.3506 63.6396 62.9365 62.2415 61.5549 60.8769 60.208 59.5483 58.8982 58.258 57.6281 57.0088 56.4004 55.8032 55.1725 54.4885 53.8145 53.1507 52.4976 51.8556 51.225 50.6063 50 49.4065 48.8262 48.2597 47.7074 47.1699 46.6154 46.0435 45.4533 44.8219 44.2041 43.6005 43.0116 42.4382 41.8808 41.3401 40.8044 40.2244 39.6611 39.1152 38.5876 38.0132 37.4433 36.8917 36.3593 35.8469 35.3553 34.8855 34.4384 34 33.541 33.1059 32.6497 32.2025 31.6228 31.0644 30.5287 30.0167 29.5296 29.0689 28.6356 28.178 27.7308 27.2947 26.8328 26.4008 25.9422 25.4951 25.0799 24.6982 24.3516 24.0416 23.7065 23.2594 22.8254 22.3607 21.9317 21.4709 21.0238 20.6155 20.2485 19.9249 19.6469 19.3132 18.9737 18.6815 18.3576 17.8885 17.4642 17.088 16.7631 16.4924 16.2788 16.1245 15.8114 15.5242 15.2315 14.8661 14.5602 14.3178 13.9284 13.6015 13.3417 13.1529 13 12.6491 12.3693 12.1655 12.0416 11.7047 11.4018 11.1803 11.0454 11 10.7703 10.4403 10.198 10.0499 10 9.84886 9.48683 9.21954 9.05539 9 9 8.94427 8.544 8.24621 8.06226 8 8 8 8 8 7.61577 7.28011 7.07107 7 7 7 7 7 7 7 7 7 7 6.7082 6.32456 6.08276 6 6 6 6 6 6 6 6 6 6 6 6 6 6 6 6 6 6 6 6 6 6 6 6 6 6.08276 6.32456 6.7082 7 7 7 7 7 7 7 7 7 7 7 7.07107 7.28011 7.61577 8 8 8 8 8 8 8.06226 8.24621 8.544 8.94427 9 9 9 9.05539 9.21954 9.48683 9.84886 10 10 10 10.0499 10.198 10.4403 10.7703 11 11 11.0454 11.1803 11.4018 11.7047 12.0416 12.1655 12.3693 12.6491 13 13.0384 13.1529 13.3417 13.6015 13.9284 14.0357 14.1421 14.3178 14.5602 14.8661 15.1327 15.2971 15.5242 15.8114 16.1245 16.2788 16.4924 16.7631 17.088 17.2627 17.4642 17.72 18.0278 18.3848 18.6815 18.9737 19.2354 19.4165 19.6469 19.9249 20.2485 20.6155 20.8806 21.1896 21.3776 21.0238 20.1246 19.2354 18.3576 17.4929 16.6433 15.8114 15 14.2127 13.4164 12.53 11.6619 10.7703 9.84886 8.94427 8.06226 7.2111 6.32456 5.38516 4.47214 3.60555 2.82843 2 1 0 0 1 2 2.82843 3.60555 4.47214 5.38516 6.32456 7.2111 8.06226 8.94427 9.84886 10.2956 9.43398 8.544 7.61577 6.7082 5.83095 5 4.12311 3.16228 2.23607 1.41421 1 0 0 1 2 2.82843 3.60555 4.47214 5.38516 6.32456 7.2111 8.06226 8.94427 9.84886 10.7703 11.6619 12.53 13.4164 14.3178 15.2315 16.1245 17 17.8045 18.6011 19.4165 20.2485 21.095 21.9545 22.8254 23.7065 24.5967 25.4951 26.4008 27.2029 28.0179 28.8444 29.6816 30.5287 31.3847 32.249 33.121 34 34.8855 35.7771 36.6197 37.4433 38.2753 39.1152 39.9625 40.8167 41.6773 42.5441 43.4166 44.2945 45.1774 46.0435 46.8722 47.7074 48.5489 49.3964 50.2195 51.0392 51.8652 52.6973 53.535 54.3783 55.2268 56.0803 56.9386 57.8014 58.6003 59.4054 60.2163 61 60 59 58 57 56 55 54 53 52 51 50 49 48 47 46 45 44 43 42 41 40 39 38 37 36 35 34 33 32 31 30 29 28 27 26 25 24 23 22 21 20 19 18 17
58 59 60 61 62 63 64 65 66 67 68 69 70 71 72 73 74 75 76 77 78 79 80 81 82 83 84 85 86 87 88 89 90 91 92 93 94 95 96 97 98 99 100 101 102 103 104 105 106 106.827 106.042 105.262 104.484 103.711 102.942 102.176 101.415 100.658 99.905 99.1564 98.4073 97.6166 96.8298 96.0469 95.268 94.4934 93.723 92.957 92.1954 91.4385 90.6863 89.9389 89.1964 88.459 87.7269 87 86.2786 85.5628 84.8528 84.1487 83.4386 82.7345 82.0244 81.3204 80.6102 79.9062 79.196 78.492 77.7817 77.0779 76.3675 75.6637 74.9533 74.2496 73.5391 72.8354 72.1249 71.4213 70.7107 70.0071 69.2965 68.593 67.8822 67.1789 66.4831 65.7647 65.0538 64.3506 63.6553 62.9682 62.2896 61.6198 60.959 60.3075 59.6657 59.0339 58.4123 57.8014 57.2014 56.5862 55.9017 55.2268 54.5619 53.9073 53.2635 52.6308 52.0096 51.4004 50.8035 50.2195 49.6488 49.0918 48.5489 48.0104 47.4342 46.8615 46.2277 45.607 45 44.4072 43.8292 43.2666 42.72 42.19 41.6173 41.0488 40.4969 39.9625 39.4081 38.833 38.2753 37.7359 37.2156 36.7151 36.2353 35.7771 35.3412 34.8855 34.4384 34 33.541 33.0151 32.45 31.9061 31.3847 30.8869 30.4138 29.9666 29.5296 29.0689 28.6356 28.178 27.7308 27.2947 26.8328 26.4008 26 25.632 25.2982 25 24.5967 24.1661 23.7065 23.2594 22.8254 22.3607 21.9317 21.5407 21.1896 20.8806 20.6155 20.2485 19.9249 19.6469 19.2354 18.7883 18.3848 18.0278 17.72 17.4642 17.2627 17.088 16.7631 16.4924 16.1555 15.8114 15.5242 15.2315 14.8661 14.5602 14.3178 14.1421 13.9284 13.6015 13.3417 13.1529 13 12.6491 12.3693 12.1655 12.0416 12 11.7047 11.4018 11.1803 11.0454 11 10.7703 10.4403 10.198 10.0499 10 10 9.84886 9.48683 9.21954 9.05539 9 9 9 9 8.94427 8.544 8.24621 8.06226 8 8 8 8 8 8 8 8 8 8 7.61577 7.28011 7.07107 7 7 7 7 7 7 7 7 7 7 7 7 7 7 7 7 7 7 7 7 7 7 7 7 7 7.07107 7.28011 7.61577 8 8 8 8 8 8 8 8 8 8 8 8.06226 8.24621 8.544 8.94427 9 9 9 9 9 9.05539 9.21954 9.48683 9.84886 10 10 10 10.0499 10.198 10.4403 10.7703 11 11 11 11.0454 11.1803 11.4018 11.7047 12 12 12.0416 12.1655 12.3693 12.6491 13 13.1529 13.3417 13.6015 13.9284 14.0357 14.1421 14.3178 14.5602 14.8661 15.0333 15.1327 15.2971 15.5242 15.8114 16.1245 16.2788 16.4924 16.7631 17.088 17.2627 17.4642 17.72 18.0278 18.2483 18.4391 18.6815 18.9737 19.3132 19.6469 19.9249 20.2237 20.3961 20.6155 20.8806 21.1896 21.5407 21.8403 22.1359 22.3607 21.4709 20.5913 19.7231 18.868 18.0278 17.2047 16.4012 15.6205 14.7648 13.8924 13 12.083 11.1803 10.2956 9.43398 8.544 7.61577 6.7082 5.83095 5 4.12311 3.16228 2.23607 1.41421 1 0 1 1.41421 2.23607 3.16228 4.12311 5 5.83095 6.7082 7.61577 8.544 9.43398 10.2956 9.84886 8.94427 8.06226 7.2111 6.32456 5.38516 4.47214 3.60555 2.82843 2.23607 1.41421 1 0 1 1.41421 2.23607 3.16228 4.12311 5 5.83095 6.7082 7.61577 8.544 9.43398 10.2956 11.1803 12.083 13 13.8924 14.7648 15.6205 16.4012 17.2047 18.0278 18.868 19.7231 20.5913 21.4709 22.3607 23.2594 24.1661 25 25.807 26.6271 27.4591 28.3019 29.1548 30.0167 30.8869 31.7648 32.6497 33.541 34.4093 35.2278 36.0555 36.8917 37.7359 38.5876 39.4462 40.3113 41.1825 42.0595 42.9418 43.8292 44.6542 45.4863 46.3249 47.1699 48.0104 48.8262 49.6488 50.4777 51.3128 52.1536 53 53.8516 54.7083 55.5698 56.4004 57.2014 58.0086 58.8218 59.6406 60.4649 60 59 58 57 56 55 54 53 52 51 50 49 48 47 46 45 44 43 42 41 40 39 38 37 36 35 34 33 32 31 30 29 28 27 26 25 24 23 22 21 20 19 18 17
58 59 60 61 62 63 64 65 66 67 68 69 70 71 72 73 74 75 76 77 78 79 80 81 82 83 84 85 86 87 88 89 90 91 92 93 94 95 96 97 98 99 100 101 102 103 104 105 106 107 106.668 105.891 105.119 104.35 103.586 102.825 102.069 101.316 100.568 99.8098 99.0202 98.2344 97.4526 96.6747 95.901 95.1315 94.3663 93.6056 92.8493 92.0978 91.351 90.609 89.8721 89.1403 88.4138 87.6926 86.977 86.267 85.5628 84.8528 84.1487 83.4386 82.7345 82.0244 81.3204 80.6102 79.9062 79.196 78.492 77.7817 77.0779 76.3675 75.6637 74.9533 74.2496 73.5391 72.8354 72.1249 71.4213 70.7107 70.0071 69.2965 68.593 67.897 67.1789 66.468 65.7647 65.0692 64.3817 63.7024 63.0317 62.3699 61.7171 61.0737 60.4401 59.8164 59.203 58.6003 58 57.3149 56.6392 55.9732 55.3173 54.6717 54.037 53.4135 52.8015 52.2015 51.614 51.0392 50.4777 49.93 49.3964 48.8262 48.2597 47.634 47.0106 46.4004 45.8039 45.2217 44.6542 44.1022 43.566 43.0116 42.4382 41.8808 41.3401 40.8044 40.2244 39.6611 39.1152 38.5876 38.0789 37.5899 37.1214 36.6742 36.2353 35.7771 35.3412 34.8855 34.4093 33.8378 33.2866 32.7567 32.249 31.7648 31.305 30.8707 30.4138 29.9666 29.5296 29.0689 28.6356 28.178 27.7308 27.313 26.9258 26.5707 26.2488 25.9422 25.4951 25.0599 24.5967 24.1661 23.7065 23.2594 22.8473 22.4722 22.1359 21.8403 21.5407 21.1896 20.8806 20.5913 20.1246 19.6977 19.3132 18.9737 18.6815 18.4391 18.2483 18.0278 17.72 17.4642 17.088 16.7631 16.4924 16.1555 15.8114 15.5242 15.2971 15.1327 14.8661 14.5602 14.3178 14.1421 13.9284 13.6015 13.3417 13.1529 13.0384 13 12.6491 12.3693 12.1655 12.0416 12 11.7047 11.4018 11.1803 11.0454 11 11 10.7703 10.4403 10.198 10.0499 10 10 10 10 9.84886 9.48683 9.21954 9.05539 9 9 9 9 9 9 9 9 9 8.94427 8.544 8.24621 8.06226 8 8 8 8 8 8 8 8 8 8 8 8 8 8 8 8 8 8 8 8 8 8 8 8 8 8.06226 8.24621 8.544 8.94427 9 9 9 9 9 9 9 9 9 9 9.05539 9.21954 9.48683 9.84886 10 10 10 10 10 10.0499 10.198 10.4403 10.7703 11 11 11 11.0454 11.1803 11.4018 11.7047 12 12 12 12.0416 12.1655 12.3693 12.6491 13 13 13.0384 13.1529 13.3417 13.6015 13.9284 14.1421 14.3178 14.5602 14.8661 15.0333 15.1327 15.2971 15.5242 15.8114 16.0312 16.1245 16.2788 16.4924 16.7631 17.088 17.2627 17.4642 17.72 18.0278 18.2483 18.4391 18.6815 18.9737 19.2354 19.4165 19.6469 19.9249 20.2485 20.6155 20.8806 21.1896 21.3776 21.587 21.8403 22.1359 22.4722 22.8035 23.0868 22.8254 21.9545 21.095 20.2485 19.4165 18.6011 17.8045 17 16.1245 15.2315 14.3178 13.4164 12.53 11.6619 10.7703 9.84886 8.94427 8.06226 7.2111 6.32456 5.38516 4.47214 3.60555 2.82843 2 1 0 0 1 2 2.82843 3.60555 4.47214 5.38516 6.32456 7.2111 8.06226 8.94427 9.84886 10.2956 9.43398 8.544 7.61577 6.7082 5.83095 5 4.24264 3.60555 2.82843 2 1 0 0 1 2 2.82843 3.60555 4.47214 5.38516 6.32456 7.2111 8.06226 8.94427 9.84886 10.7703 11.6619 12.53 13.4164 14.2127 15 15.8114 16.6433 17.4929 18.3576 19.2354 20.1246 21.0238 21.9317 22.8035 23.6008 24.4131 25.2389 26.0768 26.9258 27.7849 28.6531 29.5296 30.4138 31.305 32.2025 33.0151 33.8378 34.6699 35.5106 36.3593 37.2156 38.0789 38.9487 39.8246 40.7063 41.5933 42.4382 43.2666 44.1022 44.9444 45.793 46.6154 47.4342 48.2597 49.0918 49.93 50.774 51.6236 52.4786 53.3385 54.2033 55 55.8032 56.6127 57.4282 58.2495 59.0762 59.9083 60 59 58 57 56 55 54 53 52 51 50 49 48 47 46 45 44 43 42 41 40 39 38 37 36 35 34 33 32 31 30 29 28 27 26 25 24 23 22 21 20 19 18 17
58 59 60 61 62 63 64 65 66 67 68 69 70 71 72 73 74 75 76 77 78 79 80 81 82 83 84 85 86 87 88 89 90 91 92 93 94 95 96 97 98 99 100 101 102 103 104 105 106 107 107.299 106.527 105.759 104.995 104.235 103.479 102.728 101.98 101.213 100.424 99.6394 98.8585 98.0816 97.3088 96.5401 95.7758 95.0158 94.2603 93.5094 92.7631 92.0217 91.2853 90.5538 89.8276 89.1067 88.3912 87.6812 86.977 86.267 85.5628 84.8528 84.1487 83.4386 82.7345 82.0244 81.3204 80.6102 79.9062 79.196 78.492 77.7817 77.0779 76.3675 75.6637 74.9533 74.2496 73.5391 72.8354 72.1249 71.4213 70.7107 70.0071 69.3109 68.593 67.8822 67.1789 66.4831 65.7951 65.1153 64.4438 63.7809 63.1269 62.482 61.8466 61.2209 60.6053 60 59.4054 58.7282 58.0517 57.3847 56.7274 56.0803 55.4437 54.8179 54.2033 53.6004 53.0094 52.4309 51.8652 51.3128 50.774 50.2195 49.6488 49.0408 48.4149 47.8017 47.2017 46.6154 46.0435 45.4863 44.9444 44.4072 43.8292 43.2666 42.72 42.19 41.6173 41.0488 40.4969 39.9625 39.4462 38.9487 38.4708 38.0132 37.5766 37.1214 36.6742 36.2353 35.7771 35.2278 34.6699 34.1321 33.6155 33.121 32.6497 32.2025 31.7648 31.305 30.8707 30.4138 29.9666 29.5296 29.0689 28.6356 28.2312 27.8568 27.5136 27.2029 26.8328 26.4008 25.9422 25.4951 25.0599 24.5967 24.1661 23.7697 23.4094 23.0868 22.8035 22.4722 22.1359 21.8403 21.4709 21.0238 20.6155 20.2485 19.9249 19.6469 19.4165 19.2354 18.9737 18.6815 18.3848 18.0278 17.72 17.4642 17.088 16.7631 16.4924 16.2788 16.1245 15.8114 15.5242 15.2971 15.1327 14.8661 14.5602 14.3178 14.1421 14.0357 13.9284 13.6015 13.3417 13.1529 13.0384 13 12.6491 12.3693 12.1655 12.0416 12 12 11.7047 11.4018 11.1803 11.0454 11 11 11 11 10.7703 10.4403 10.198 10.0499 10 10 10 10 10 10 10 10 10 9.84886 9.48683 9.21954 9.05539 9 9 9 9 9 9 9 9 9 9 9 9 9 9 9 9 9 9 9 9 9 9 9 9 9 9.05539 9.21954 9.48683 9.84886 10 10 10 10 10 10 10 10 10 10 10.0499 10.198 10.4403 10.7703 11 11 11 11 11 11.0454 11.1803 11.4018 11.7047 12 12 12 12.0416 12.1655 12.3693 12.6491 13 13 13 13.0384 13.1529 13.3417 13.6015 13.9284 14 14.0357 14.1421 14.3178 14.5602 14.8661 15.1327 15.2971 15.5242 15.8114 16.0312 16.1245 16.2788 16.4924 16.7631 17.0294 17.1172 17.2627 17.4642 17.72 18.0278 18.2483 18.4391 18.6815 18.9737 19.2354 19.4165 19.6469 19.9249 20.2237 20.3961 20.6155 20.8806 21.1896 21.5407 21.8403 22.1359 22.3607 22.561 22.8035 23.0868 23.4094 23.7697 24.0416 23.3238 22.4722 21.6333 20.8087 20 19.2094 18.3576 17.4642 16.5529 15.6525 14.7648 13.8924 13 12.083 11.1803 10.2956 9.43398 8.544 7.61577 6.7082 5.83095 5 4.12311 3.16228 2.23607 1.41421 1 0 1 1.41421 2.23607 3.16228 4.12311 5 5.83095 6.7082 7.61577 8.48528 9.21954 10 9.84886 8.94427 8.06226 7.2111 6.40312 5.65685 5 4.12311 3.16228 2.23607 1.41421 1 0 1 1.41421 2.23607 3.16228 4.12311 5 5.83095 6.7082 7.61577 8.544 9.43398 10.2956 11.1803 12.0416 12.8062 13.6015 14.4222 15.2643 16.1245 17 17.8885 18.7883 19.6977 20.5913 21.4009 22.2036 23.0217 23.8537 24.6982 25.5539 26.4197 27.2947 28.178 29.0689 29.9666 30.8058 31.6228 32.45 33.2866 34.1321 34.9857 35.8469 36.7151 37.5899 38.4708 39.3573 40.2244 41.0488 41.8808 42.72 43.566 44.4072 45.2217 46.0435 46.8722 47.7074 48.5489 49.3964 50.2494 51.1077 51.9711 52.8015 53.6004 54.4059 55.2178 56.0357 56.8595 57.6888 58.5235 59.3633 60 59 58 57 56 55 54 53 52 51 50 49 48 47 46 45 44 43 42 41 40 39 38 37 36 35 34 33 32 31 30 29 28 27 26 25 24 23 22 21 20 19 18 17
58 59 60 61 62 63 64 65 66 67 68 69 70 71 72 73 74 75 76 77 78 79 80 81 82 83 84 85 86 87 88 89 90 91 92 93 94 95 96 97 98 99 100 101 102 103 104 105 106 107 107.935 107.168 106.405 105.646 104.89 104.139 103.392 102.616 101.828 101.045 100.265 99.4887 98.7168 97.949 97.1854 96.4261 95.6713 94.921 94.1754 93.4345 92.6984 91.9674 91.2414 90.5207 89.8053 89.0955 88.3912 87.6812 86.977 86.267 85.5628 84.8528 84.1487 83.4386 82.7345 82.0244 81.3204 80.6102 79.9062 79.196 78.492 77.7817 77.0779 76.3675 75.6637 74.9533 74.2496 73.5391 72.8354 72.1249 71.4213 70.7248 70.0071 69.2965 68.593 67.897 67.2086 66.5282 65.8559 65.192 64.5368 63.8905 63.2535 62.6259 62.0081 61.4003 60.803 60.1415 59.4643 58.7963 58.1378 57.4891 56.8507 56.2228 55.6058 55 54.4059 53.8238 53.2541 52.6973 52.1536 51.614 51.0392 50.448 49.8197 49.2037 48.6004 48.0104 47.4342 46.8722 46.3249 45.793 45.2217 44.6542 44.1022 43.566 43.0116 42.4382 41.8808 41.3401 40.8167 40.3113 39.8246 39.3573 38.9102 38.4708 38.0132 37.5766 37.1214 36.6197 36.0555 35.5106 34.9857 34.4819 34 33.541 33.1059 32.6497 32.2025 31.7648 31.305 30.8707 30.4138 29.9666 29.5466 29.1548 28.7924 28.4605 28.1603 27.7308 27.2947 26.8328 26.4008 25.9422 25.4951 25.0799 24.6982 24.3516 24.0416 23.7697 23.4094 23.0868 22.8035 22.3607 21.9317 21.5407 21.1896 20.8806 20.6155 20.3961 20.2237 19.9249 19.6469 19.3132 18.9737 18.6815 18.3848 18.0278 17.72 17.4642 17.2627 17.088 16.7631 16.4924 16.2788 16.1245 15.8114 15.5242 15.2971 15.1327 15.0333 14.8661 14.5602 14.3178 14.1421 14.0357 13.9284 13.6015 13.3417 13.1529 13.0384 13 13 12.6491 12.3693 12.1655 12.0416 12 12 12 12 11.7047 11.4018 11.1803 11.0454 11 11 11 11 11 11 11 11 11 10.7703 10.4403 10.198 10.0499 10 10 10 10 10 10 10 10 10 10 10 10 10 10 10 10 10 10 10 10 10 10 10 10 10 10.0499 10.198 10.4403 10.7703 11 11 11 11 11 11 11 11 11 11 11.0454 11.1803 11.4018 11.7047 12 12 12 12 12 12.0416 12.1655 12.3693 12.6491 13 13 13 13.0384 13.1529 13.3417 13.6015 13.9284 14 14 14.0357 14.1421 14.3178 14.5602 14.8661 15 15.0333 15.1327 15.2971 15.5242 15.8114 16.1245 16.2788 16.4924 16.7631 17.0294 17.1172 17.2627 17.4642 17.72 18.0278 18.1108 18.2483 18.4391 18.6815 18.9737 19.2354 19.4165 19.6469 19.9249 20.2237 20.3961 20.6155 20.8806 21.1896 21.3776 21.587 21.8403 22.1359 22.4722 22.8035 23.0868 23.3452 23.5372 23.7697 24.0416 24.3516 24.6982 24.6982 23.8537 23.0217 22.2036 21.4009 20.5913 19.6977 18.7883 17.8885 17 16.1245 15.2315 14.3178 13.4164 12.53 11.6619 10.7703 9.84886 8.94427 8.06226 7.2111 6.32456 5.38516 4.47214 3.60555 2.82843 2 1 0 0 1 2 2.82843 3.60555 4.47214 5.38516 6.32456 7.07107 7.81025 8.60233 9.43398 10.2956 9.43398 8.60233 7.81025 7.07107 6.32456 5.38516 4.47214 3.60555 2.82843 2 1 0 0 1 2 2.82843 3.60555 4.47214 5.38516 6.32456 7.2111 8.06226 8.94427 9.84886 10.6301 11.4018 12.2066 13.0384 13.8924 14.7648 15.6525 16.5529 17.4642 18.3576 19.2094 20 20.8087 21.6333 22.4722 23.3238 24.1868 25.0599 25.9422 26.8328 27.7308 28.6007 29.4109 30.2324 31.0644 31.9061 32.7567 33.6155 34.4819 35.3553 36.2353 37.1214 38.0132 38.833 39.6611 40.4969 41.3401 42.19 43.0116 43.8292 44.6542 45.4863 46.3249 47.1699 48.0208 48.8774 49.7393 50.6063 51.4004 52.2015 53.0094 53.8238 54.6443 55.4707 56.3028 57.1402 57.9828 58.8218 59.6406 59 58 57 56 55 54 53 52 51 50 49 48 47 46 45 44 43 42 41 40 39 38 37 36 35 34 33 32 31 30 29 28 27 26 25 24 23 22 21 20 19 18 17
58 59 60 61 62 63 64 65 66 67 68 69 70 71 72 73 74 75 76 77 78 79 80 81 82 83 84 85 86 87 88 89 90 91 92 93 94 95 96 97 98 99 100 101 102 103 104 105 106 107 108 107.815 107.056 106.301 105.551 104.805 104.019 103.233 102.45 101.671 100.896 100.125 99.3579 98.5951 97.8366 97.0824 96.3328 95.5877 94.8472 94.1116 93.3809 92.6553 91.9348 91.2195 90.5097 89.8053 89.0955 88.3912 87.6812 86.977 86.267 85.5628 84.8528 84.1487 83.4386 82.7345 82.0244 81.3204 80.6102 79.9062 79.196 78.492 77.7817 77.0779 76.3675 75.6637 74.9533 74.2496 73.5391 72.8354 72.1388 71.4213 70.7107 70.0071 69.3109 68.6222 67.9412 67.2681 66.6033 65.9469 65.2993 64.6607 64.0312 63.4114 62.8013 62.2013 61.5549 60.8769 60.208 59.5483 58.8982 58.258 57.6281 57.0088 56.4004 55.8032 55.2178 54.6443 54.0833 53.535 53 52.4309 51.8556 51.225 50.6063 50 49.4065 48.8262 48.2597 47.7074 47.1699 46.6154 46.0435 45.4863 44.9444 44.4072 43.8292 43.2666 42.72 42.19 41.6773 41.1825 40.7063 40.2492 39.8121 39.3573 38.9102 38.4708 38.0132 37.4433 36.8917 36.3593 35.8469 35.3553 34.8855 34.4384 34 33.541 33.1059 32.6497 32.2025 31.7648 31.305 30.8707 30.4631 30.0832 29.7321 29.4109 29.0689 28.6356 28.178 27.7308 27.2947 26.8328 26.4008 26 25.632 25.2982 25 24.6982 24.3516 24.0416 23.7065 23.2594 22.8473 22.4722 22.1359 21.8403 21.587 21.3776 21.1896 20.8806 20.6155 20.2485 19.9249 19.6469 19.3132 18.9737 18.6815 18.4391 18.2483 18.0278 17.72 17.4642 17.2627 17.088 16.7631 16.4924 16.2788 16.1245 16.0312 15.8114 15.5242 15.2971 15.1327 15.0333 14.8661 14.5602 14.3178 14.1421 14.0357 14 13.9284 13.6015 13.3417 13.1529 13.0384 13 13 13 13 12.6491 12.3693 12.1655 12.0416 12 12 12 12 12 12 12 12 12 11.7047 11.4018 11.1803 11.0454 11 11 11 11 11 11 11 11 11 11 11 11 11 11 11 11 11 11 11 11 11 11 11 11 11 11.0454 11.1803 11.4018 11.7047 12 12 12 12 12 12 12 12 12 12 12.0416 12.1655 12.3693 12.6491 13 13 13 13 13 13.0384 13.1529 13.3417 13.6015 13.9284 14 14 14.0357 14.1421 14.3178 14.5602 14.8661 15 15 15.0333 15.1327 15.2971 15.5242 15.8114 16 16.0312 16.1245 16.2788 16.4924 16.7631 17.088 17.2627 17.4642 17.72 18.0278 18.1108 18.2483 18.4391 18.6815 18.9737 19.105 19.2354 19.4165 19.6469 19.9249 20.2237 20.3961 20.6155 20.8806 21.1896 21.3776 21.587 21.8403 22.1359 22.3607 22.561 22.8035 23.0868 23.4094 23.7697 24.0416 24.3311 24.5153 24.7386 25 25.2982 25.632 25.2389 24.4131 23.6008 22.8035 21.9317 21.0238 20.1246 19.2354 18.3576 17.4642 16.5529 15.6525 14.7648 13.8924 13 12.083 11.1803 10.2956 9.43398 8.544 7.61577 6.7082 5.83095 5 4.12311 3.16228 2.23607 1.41421 1 0 1 1.41421 2.23607 3.16228 4.12311 5 5.65685 6.40312 7.2111 8.06226 8.94427 9.84886 10 9.21954 8.48528 7.61577 6.7082 5.83095 5 4.12311 3.16228 2.23607 1.41421 1 0 1 1.41421 2.23607 3.16228 4.12311 5 5.83095 6.7082 7.61577 8.48528 9.21954 10 10.8167 11.6619 12.53 13.4164 14.3178 15.2315 16.1245 17 17.8045 18.6011 19.4165 20.2485 21.095 21.9545 22.8254 23.7065 24.5967 25.4951 26.4008 27.2029 28.0179 28.8444 29.6816 30.5287 31.3847 32.249 33.121 34 34.8855 35.7771 36.6197 37.4433 38.2753 39.1152 39.9625 40.8044 41.6173 42.4382 43.2666 44.1022 44.9444 45.793 46.6476 47.5079 48.3735 49.2037 50 50.8035 51.614 52.4309 53.2541 54.0833 54.9181 55.7584 56.6039 57.4282 58.2495 59.0762 59 58 57 56 55 54 53 52 51 50 49 48 47 46 45 44 43 42 41 40 39 38 37 36 35 34 33 32 31 30 29 28 27 26 25 24 23 22 21 20 19 18 17
58 59 60 61 62 63 64 65 66 67 68 69 70 71 72 73 74 75 76 77 78 79 80 81 82 83 84 85 86 87 88 89 90 91 92 93 94 95 96 97 98 99 100 101 102 103 104 105 106 107 108 108.467 107.713 106.963 106.212 105.423 104.637 103.856 103.078 102.303 101.533 100.767 100.005 99.2472 98.4937 97.7446 97 96.2601 95.5249 94.7945 94.0691 93.3488 92.6337 91.9239 91.2195 90.5097 89.8053 89.0955 88.3912 87.6812 86.977 86.267 85.5628 84.8528 84.1487 83.4386 82.7345 82.0244 81.3204 80.6102 79.9062 79.196 78.492 77.7817 77.0779 76.3675 75.6637 74.9533 74.2496 73.5527 72.8354 72.1249 71.4213 70.7248 70.0357 69.3542 68.6804 68.0147 67.3573 66.7083 66.0681 65.437 64.8151 64.2028 63.6003 62.9682 62.2896 61.6198 60.959 60.3075 59.6657 59.0339 58.4123 57.8014 57.2014 56.6127 56.0357 55.4707 54.9181 54.3783 53.8238 53.2541 52.6308 52.0096 51.4004 50.8035 50.2195 49.6488 49.0918 48.5489 48.0104 47.4342 46.8722 46.3249 45.793 45.2217 44.6542 44.1022 43.566 43.0465 42.5441 42.0595 41.5933 41.1461 40.7063 40.2492 39.8121 39.3573 38.833 38.2753 37.7359 37.2156 36.7151 36.2353 35.7771 35.3412 34.8855 34.4384 34 33.541 33.1059 32.6497 32.2025 31.7805 31.3847 31.0161 30.6757 30.3645 29.9666 29.5296 29.0689 28.6356 28.178 27.7308 27.313 26.9258 26.5707 26.2488 25.9615 25.632 25.2982 25 24.5967 24.1661 23.7697 23.4094 23.0868 22.8035 22.561 22.3607 22.1359 21.8403 21.5407 21.1896 20.8806 20.6155 20.2485 19.9249 19.6469 19.4165 19.2354 18.9737 18.6815 18.4391 18.2483 18.0278 17.72 17.4642 17.2627 17.1172 17.0294 16.7631 16.4924 16.2788 16.1245 16.0312 15.8114 15.5242 15.2971 15.1327 15.0333 15 14.8661 14.5602 14.3178 14.1421 14.0357 14 14 14 13.9284 13.6015 13.3417 13.1529 13.0384 13 13 13 13 13 13 13 13 13 12.6491 12.3693 12.1655 12.0416 12 12 12 12 12 12 12 12 12 12 12 12 12 12 12 12 12 12 12 12 12 12 12 12 12 12.0416 12.1655 12.3693 12.6491 13 13 13 13 13 13 13 13 13 13 13.0384 13.1529 13.3417 13.6015 13.9284 14 14 14 14 14.0357 14.1421 14.3178 14.5602 14.8661 15 15 15.0333 15.1327 15.2971 15.5242 15.8114 16 16 16.0312 16.1245 16.2788 16.4924 16.7631 17 17.0294 17.1172 17.2627 17.4642 17.72 18.0278 18.2483 18.4391 18.6815 18.9737 19.105 19.2354 19.4165 19.6469 19.9249 20.0998 20.2237 20.3961 20.6155 20.8806 21.1896 21.3776 21.587 21.8403 22.1359 22.3607 22.561 22.8035 23.0868 23.3452 23.5372 23.7697 24.0416 24.3516 24.6982 25 25.2982 25.4951 25.7099 25.9615 26.2488 26.5707 25.807 25 24.1661 23.2594 22.3607 21.4709 20.5913 19.6977 18.7883 17.8885 17 16.1245 15.2315 14.3178 13.4164 12.53 11.6619 10.7703 9.84886 8.94427 8.06226 7.2111 6.32456 5.38516 4.47214 3.60555 2.82843 2 1 0 0 1 2 2.82843 3.60555 4.24264 5 5.83095 6.7082 7.61577 8.544 9.43398 10.2956 9.84886 8.94427 8.06226 7.2111 6.32456 5.38516 4.47214 3.60555 2.82843 2 1 0 0 1 2 2.82843 3.60555 4.47214 5.38516 6.32456 7.07107 7.81025 8.60233 9.43398 10.2956 11.1803 12.083 13 13.8924 14.7648 15.6205 16.4012 17.2047 18.0278 18.868 19.7231 20.5913 21.4709 22.3607 23.2594 24.1661 25 25.807 26.6271 27.4591 28.3019 29.1548 30.0167 30.8869 31.7648 32.6497 33.541 34.4093 35.2278 36.0555 36.8917 37.7359 38.5876 39.4081 40.2244 41.0488 41.8808 42.72 43.566 44.4185 45.2769 46.1411 47.0106 47.8017 48.6004 49.4065 50.2195 51.0392 51.8652 52.6973 53.535 54.3783 55.2178 56.0357 56.8595 57.6888 58.5235 59 58 57 56 55 54 53 52 51 50 49 48 47 46 45 44 43 42 41 40 39 38 37 36 35 34 33 32 31 30 29 28 27 26 25 24 23 22 21 20 19 18 17
58 59 60 61 62 63 64 65 66 67 68 69 70 71 72 73 74 75 76 77 78 79 80 81 82 83 84 85 86 87 88 89 90 91 92 93 94 95 96 97 98 99 100 101 102 103 104 105 106 107 108 109 108.374 107.615 106.827 106.042 105.262 104.484 103.711 102.942 102.176 101.415 100.658 99.905 99.1564 98.4124 97.6729 96.9381 96.2081 95.483 94.7629 94.0479 93.3381 92.6337 91.9239 91.2195 90.5097 89.8053 89.0955 88.3912 87.6812 86.977 86.267 85.5628 84.8528 84.1487 83.4386 82.7345 82.0244 81.3204 80.6102 79.9062 79.196 78.492 77.7817 77.0779 76.3675 75.6637 74.9667 74.2496 73.5391 72.8354 72.1388 71.4493 70.7672 70.0928 69.4262 68.7677 68.1175 67.4759 66.8431 66.2193 65.6049 65 64.3817 63.7024 63.0317 62.3699 61.7171 61.0737 60.4401 59.8164 59.203 58.6003 58.0086 57.4282 56.8595 56.3028 55.7584 55.2178 54.6443 54.037 53.4135 52.8015 52.2015 51.614 51.0392 50.4777 49.93 49.3964 48.8262 48.2597 47.7074 47.1699 46.6154 46.0435 45.4863 44.9444 44.4185 43.909 43.4166 42.9418 42.4853 42.0476 41.5933 41.1461 40.7063 40.2244 39.6611 39.1152 38.5876 38.0789 37.5899 37.1214 36.6742 36.2353 35.7771 35.3412 34.8855 34.4384 34 33.541 33.1059 32.6956 32.311 31.9531 31.6228 31.305 30.8707 30.4138 29.9666 29.5296 29.0689 28.6356 28.2312 27.8568 27.5136 27.2029 26.9258 26.5707 26.2488 25.9422 25.4951 25.0799 24.6982 24.3516 24.0416 23.7697 23.5372 23.3452 23.0868 22.8035 22.4722 22.1359 21.8403 21.5407 21.1896 20.8806 20.6155 20.3961 20.2237 19.9249 19.6469 19.4165 19.2354 18.9737 18.6815 18.4391 18.2483 18.1108 18.0278 17.72 17.4642 17.2627 17.1172 17.0294 16.7631 16.4924 16.2788 16.1245 16.0312 16 15.8114 15.5242 15.2971 15.1327 15.0333 15 15 15 14.8661 14.5602 14.3178 14.1421 14.0357 14 14 14 14 14 14 14 14 13.9284 13.6015 13.3417 13.1529 13.0384 13 13 13 13 13 13 13 13 13 13 13 13 13 13 13 13 13 13 13 13 13 13 13 13 13 13.0384 13.1529 13.3417 13.6015 13.9284 14 14 14 14 14 14 14 14 14 14.0357 14.1421 14.3178 14.5602 14.8661 15 15 15 15 15.0333 15.1327 15.2971 15.5242 15.8114 16 16 16.0312 16.1245 16.2788 16.4924 16.7631 17 17 17.0294 17.1172 17.2627 17.4642 17.72 18 18.0278 18.1108 18.2483 18.4391 18.6815 18.9737 19.2354 19.4165 19.6469 19.9249 20.0998 20.2237 20.3961 20.6155 20.8806 21.095 21.2132 21.3776 21.587 21.8403 22.1359 22.3607 22.561 22.8035 23.0868 23.3452 23.5372 23.7697 24.0416 24.3311 24.5153 24.7386 25 25.2982 25.632 25.9615 26.2488 26.4764 26.6833 26.9258 27.2029 27.2029 26.4008 25.4951 24.5967 23.7065 22.8254 21.9317 21.0238 20.1246 19.2354 18.3576 17.4642 16.5529 15.6525 14.7648 13.8924 13 12.083 11.1803 10.2956 9.43398 8.544 7.61577 6.7082 5.83095 5 4.12311 3.16228 2.23607 1.41421 1 0 1 1.41421 2.23607 2.82843 3.60555 4.47214 5.38516 6.32456 7.2111 8.06226 8.94427 9.84886 10.2956 9.43398 8.544 7.61577 6.7082 5.83095 5 4.12311 3.16228 2.23607 1.41421 1 0 1 1.41421 2.23607 3.16228 4.12311 5 5.65685 6.40312 7.2111 8.06226 8.94427 9.84886 10.7703 11.6619 12.53 13.4164 14.2127 15 15.8114 16.6433 17.4929 18.3576 19.2354 20.1246 21.0238 21.9317 22.8035 23.6008 24.4131 25.2389 26.0768 26.9258 27.7849 28.6531 29.5296 30.4138 31.305 32.2025 33.0151 33.8378 34.6699 35.5106 36.3593 37.2022 38.0132 38.833 39.6611 40.4969 41.3401 42.19 43.0465 43.909 44.7772 45.607 46.4004 47.2017 48.0104 48.8262 49.6488 50.4777 51.3128 52.1536 53 53.8238 54.6443 55.4707 56.3028 57.1402 57.9828 58.8218 58 57 56 55 54 53 52 51 50 49 48 47 46 45 44 43 42 41 40 39 38 37 36 35 34 33 32 31 30 29 28 27 26 25 24 23 22 21 20 19 18 17
58 59 60 61 62 63 64 65 66 67 68 69 70 71 72 73 74 75 76 77 78 79 80 81 82 83 84 85 86 87 88 89 90 91 92 93 94 95 96 97 98 99 100 101 102 103 104 105 106 107 108 109 109.018 108.231 107.448 106.668 105.891 105.119 104.35 103.586 102.825 102.069 101.316 100.568 99.8248 99.0858 98.3514 97.6217 96.8969 96.1769 95.462 94.7523 94.0479 93.3381 92.6337 91.9239 91.2195 90.5097 89.8053 89.0955 88.3912 87.6812 86.977 86.267 85.5628 84.8528 84.1487 83.4386 82.7345 82.0244 81.3204 80.6102 79.9062 79.196 78.492 77.7817 77.0779 76.3806 75.6637 74.9533 74.2496 73.5527 72.8629 72.1803 71.5052 70.8378 70.1783 69.527 68.884 68.2495 67.624 67.0075 66.4003 65.7951 65.1153 64.4438 63.7809 63.1269 62.482 61.8466 61.2209 60.6053 60 59.4054 58.8218 58.2495 57.6888 57.1402 56.6039 56.0357 55.4437 54.8179 54.2033 53.6004 53.0094 52.4309 51.8652 51.3128 50.774 50.2195 49.6488 49.0918 48.5489 48.0104 47.4342 46.8722 46.3249 45.793 45.2769 44.7772 44.2945 43.8292 43.382 42.9418 42.4853 42.0476 41.5933 41.0488 40.4969 39.9625 39.4462 38.9487 38.4708 38.0132 37.5766 37.1214 36.6742 36.2353 35.7771 35.3412 34.8855 34.4384 34.0147 33.6155 33.2415 32.8938 32.573 32.2025 31.7648 31.305 30.8707 30.4138 29.9666 29.5466 29.1548 28.7924 28.4605 28.1603 27.8568 27.5136 27.2029 26.8328 26.4008 26 25.632 25.2982 25 24.7386 24.5153 24.3311 24.0416 23.7697 23.4094 23.0868 22.8035 22.4722 22.1359 21.8403 21.587 21.3776 21.1896 20.8806 20.6155 20.3961 20.2237 19.9249 19.6469 19.4165 19.2354 19.105 18.9737 18.6815 18.4391 18.2483 18.1108 18.0278 17.72 17.4642 17.2627 17.1172 17.0294 17 16.7631 16.4924 16.2788 16.1245 16.0312 16 16 16 15.8114 15.5242 15.2971 15.1327 15.0333 15 15 15 15 15 15 15 15 14.8661 14.5602 14.3178 14.1421 14.0357 14 14 14 14 14 14 14 14 14 14 14 14 14 14 14 14 14 14 14 14 14 14 14 14 14 14.0357 14.1421 14.3178 14.5602 14.8661 15 15 15 15 15 15 15 15 15 15.0333 15.1327 15.2971 15.5242 15.8114 16 16 16 16 16.0312 16.1245 16.2788 16.4924 16.7631 17 17 17.0294 17.1172 17.2627 17.4642 17.72 18 18 18.0278 18.1108 18.2483 18.4391 18.6815 18.9737 19.0263 19.105 19.2354 19.4165 19.6469 19.9249 20.2237 20.3961 20.6155 20.8806 21.095 21.2132 21.3776 21.587 21.8403 22.0907 22.2036 22.3607 22.561 22.8035 23.0868 23.3452 23.5372 23.7697 24.0416 24.3311 24.5153 24.7386 25 25.2982 25.4951 25.7099 25.9615 26.2488 26.5707 26.9258 27.2029 27.4591 27.6586 27.8927 28.1603 27.7308 26.8328 25.9422 25.0599 24.1661 23.2594 22.3607 21.4709 20.5913 19.6977 18.7883 17.8885 17 16.1245 15.2315 14.3178 13.4164 12.53 11.6619 10.7703 9.84886 8.94427 8.06226 7.2111 6.32456 5.38516 4.47214 3.60555 2.82843 2 1 0 0 1 1.41421 2.23607 3.16228 4.12311 5 5.83095 6.7082 7.61577 8.544 9.43398 10.2956 9.84886 8.94427 8.06226 7.2111 6.32456 5.38516 4.47214 3.60555 2.82843 2 1 0 0 1 2 2.82843 3.60555 4.24264 5 5.83095 6.7082 7.61577 8.544 9.43398 10.2956 11.1803 12.0416 12.8062 13.6015 14.4222 15.2643 16.1245 17 17.8885 18.7883 19.6977 20.5913 21.4009 22.2036 23.0217 23.8537 24.6982 25.5539 26.4197 27.2947 28.178 29.0689 29.9666 30.8058 31.6228 32.45 33.2866 34.1321 34.9857 35.805 36.6197 37.4433 38.2753 39.1152 39.9625 40.8167 41.6773 42.5441 43.4166 44.2041 45 45.8039 46.6154 47.4342 48.2597 49.0918 49.93 50.774 51.614 52.4309 53.2541 54.0833 54.9181 55.7584 56.6039 57.4282 58.2495 58 57 56 55 54 53 52 51 50 49 48 47 46 45 44 43 42 41 40 39 38 37 36 35 34 33 32 31 30 29 28 27 26 25 24 23 22 21 20 19 18 17
58 59 60 61 62 63 64 65 66 67 68 69 70 71 72 73 74 75 76 77 78 79 80 81 82 83 84 85 86 87 88 89 90 91 92 93 94 95 96 97 98 99 100 101 102 103 104 105 106 107 108 109 109.636 108.853 108.074 107.299 106.527 105.759 104.995 104.235 103.479 102.728 101.98 101.237 100.499 99.7647 99.0353 98.3107 97.591 96.8762 96.1665 95.462 94.7523 94.0479 93.3381 92.6337 91.9239 91.2195 90.5097 89.8053 89.0955 88.3912 87.6812 86.977 86.267 85.5628 84.8528 84.1487 83.4386 82.7345 82.0244 81.3204 80.6102 79.9062 79.196 78.492 77.7946 77.0779 76.3675 75.6637 74.9667 74.2765 73.5935 72.9178 72.2496 71.5891 70.9366 70.2922 69.6563 69.029 68.4105 67.8012 67.2012 66.5282 65.8559 65.192 64.5368 63.8905 63.2535 62.6259 62.0081 61.4003 60.803 60.2163 59.6406 59.0762 58.5235 57.9828 57.4282 56.8507 56.2228 55.6058 55 54.4059 53.8238 53.2541 52.6973 52.1536 51.614 51.0392 50.4777 49.93 49.3964 48.8262 48.2597 47.7074 47.1699 46.6476 46.1411 45.6508 45.1774 44.7214 44.2832 43.8292 43.382 42.9418 42.4382 41.8808 41.3401 40.8167 40.3113 39.8246 39.3573 38.9102 38.4708 38.0132 37.5766 37.1214 36.6742 36.2353 35.7771 35.3412 34.9285 34.5398 34.176 33.8378 33.5261 33.1059 32.6497 32.2025 31.7648 31.305 30.8707 30.4631 30.0832 29.7321 29.4109 29.1204 28.7924 28.4605 28.1603 27.7308 27.313 26.9258 26.5707 26.2488 25.9615 25.7099 25.4951 25.2982 25 24.6982 24.3516 24.0416 23.7697 23.4094 23.0868 22.8035 22.561 22.3607 22.1359 21.8403 21.587 21.3776 21.1896 20.8806 20.6155 20.3961 20.2237 20.0998 19.9249 19.6469 19.4165 19.2354 19.105 18.9737 18.6815 18.4391 18.2483 18.1108 18.0278 18 17.72 17.4642 17.2627 17.1172 17.0294 17 17 17 16.7631 16.4924 16.2788 16.1245 16.0312 16 16 16 16 16 16 16 16 15.8114 15.5242 15.2971 15.1327 15.0333 15 15 15 15 15 15 15 15 15 15 15 15 15 15 15 15 15 15 15 15 15 15 15 15 15 15.0333 15.1327 15.2971 15.5242 15.8114 16 16 16 16 16 16 16 16 16 16.0312 16.1245 16.2788 16.4924 16.7631 17 17 17 17 17.0294 17.1172 17.2627 17.4642 17.72 18 18 18.0278 18.1108 18.2483 18.4391 18.6815 18.9737 19 19.0263 19.105 19.2354 19.4165 19.6469 19.9249 20.025 20.0998 20.2237 20.3961 20.6155 20.8806 21.1896 21.3776 21.587 21.8403 22.0907 22.2036 22.3607 22.561 22.8035 23.0868 23.1948 23.3452 23.5372 23.7697 24.0416 24.3311 24.5153 24.7386 25 25.2982 25.4951 25.7099 25.9615 26.2488 26.4764 26.6833 26.9258 27.2029 27.5136 27.8568 28.1603 28.4429 28.6356 28.8617 29.0689 28.178 27.2947 26.4008 25.4951 24.5967 23.7065 22.8254 21.9317 21.0238 20.1246 19.2354 18.3576 17.4642 16.5529 15.6525 14.7648 13.8924 13 12.083 11.1803 10.2956 9.43398 8.544 7.61577 6.7082 5.83095 5 4.12311 3.16228 2.23607 1.41421 1 0 0 1 2 2.82843 3.60555 4.47214 5.38516 6.32456 7.2111 8.06226 8.94427 9.84886 10.2956 9.43398 8.544 7.61577 6.7082 5.83095 5 4.12311 3.16228 2.23607 1.41421 1 0 1 1.41421 2.23607 2.82843 3.60555 4.47214 5.38516 6.32456 7.2111 8.06226 8.94427 9.84886 10.6301 11.4018 12.2066 13.0384 13.8924 14.7648 15.6525 16.5529 17.4642 18.3576 19.2094 20 20.8087 21.6333 22.4722 23.3238 24.1868 25.0599 25.9422 26.8328 27.7308 28.6007 29.4109 30.2324 31.0644 31.9061 32.7567 33.6006 34.4093 35.2278 36.0555 36.8917 37.7359 38.5876 39.4462 40.3113 41.1825 42.0119 42.8019 43.6005 44.4072 45.2217 46.0435 46.8722 47.7074 48.5489 49.3964 50.2195 51.0392 51.8652 52.6973 53.535 54.3783 55.2178 56.0357 56.8595 57.6888 58 57 56 55 54 53 52 51 50 49 48 47 46 45 44 43 42 41 40 39 38 37 36 35 34 33 32 31 30 29 28 27 26 25 24 23 22 21 20 19 18 17
58 59 60 61 62 63 64 65 66 67 68 69 70 71 72 73 74 75 76 77 78 79 80 81 82 83 84 85 86 87 88 89 90 91 92 93 94 95 96 97 98 99 100 101 102 103 104 105 106 107 108 109 110 109.481 108.706 107.935 107.168 106.405 105.646 104.89 104.139 103.392 102.65 101.912 101.178 100.449 99.7246 99.0051 98.2904 97.5807 96.8762 96.1665 95.462 94.7523 94.0479 93.3381 92.6337 91.9239 91.2195 90.5097 89.8053 89.0955 88.3912 87.6812 86.977 86.267 85.5628 84.8528 84.1487 83.4386 82.7345 82.0244 81.3204 80.6102 79.9062 79.2086 78.492 77.7817 77.0779 76.3806 75.6902 75.0067 74.3303 73.6614 73 72.3464 71.7008 71.0634 70.4344 69.814 69.2026 68.6003 67.9412 67.2681 66.6033 65.9469 65.2993 64.6607 64.0312 63.4114 62.8013 62.2013 61.6117 61.0328 60.4649 59.9083 59.3633 58.8218 58.2495 57.6281 57.0088 56.4004 55.8032 55.2178 54.6443 54.0833 53.535 53 52.4309 51.8652 51.3128 50.774 50.2195 49.6488 49.0918 48.5489 48.0208 47.5079 47.0106 46.5296 46.0652 45.618 45.1774 44.7214 44.2832 43.8292 43.2666 42.72 42.19 41.6773 41.1825 40.7063 40.2492 39.8121 39.3573 38.9102 38.4708 38.0132 37.5766 37.1214 36.6742 36.2491 35.8469 35.4683 35.1141 34.7851 34.4384 34 33.541 33.1059 32.6497 32.2025 31.7805 31.3847 31.0161 30.6757 30.3645 30.0832 29.7321 29.4109 29.0689 28.6356 28.2312 27.8568 27.5136 27.2029 26.9258 26.6833 26.4764 26.2488 25.9615 25.632 25.2982 25 24.6982 24.3516 24.0416 23.7697 23.5372 23.3452 23.0868 22.8035 22.561 22.3607 22.1359 21.8403 21.587 21.3776 21.2132 21.095 20.8806 20.6155 20.3961 20.2237 20.0998 19.9249 19.6469 19.4165 19.2354 19.105 19.0263 18.9737 18.6815 18.4391 18.2483 18.1108 18.0278 18 18 18 17.72 17.4642 17.2627 17.1172 17.0294 17 17 17 17 17 17 17 17 16.7631 16.4924 16.2788 16.1245 16.0312 16 16 16 16 16 16 16 16 16 16 16 16 16 16 16 16 16 16 16 16 16 16 16 16 16 16.0312 16.1245 16.2788 16.4924 16.7631 17 17 17 17 17 17 17 17 17 17.0294 17.1172 17.2627 17.4642 17.72 18 18 18 18 18.0278 18.1108 18.2483 18.4391 18.6815 18.9737 19 19.0263 19.105 19.2354 19.4165 19.6469 19.9249 20 20.025 20.0998 20.2237 20.3961 20.6155 20.8806 21.0238 21.095 21.2132 21.3776 21.587 21.8403 22.1359 22.3607 22.561 22.8035 23.0868 23.1948 23.3452 23.5372 23.7697 24.0416 24.1868 24.3311 24.5153 24.7386 25 25.2982 25.4951 25.7099 25.9615 26.2488 26.4764 26.6833 26.9258 27.2029 27.4591 27.6586 27.8927 28.1603 28.4605 28.7924 29.1204 29.4109 29.6142 29.8329 29.5296 28.6356 27.7308 26.8328 25.9422 25.0599 24.1661 23.2594 22.3607 21.4709 20.5913 19.6977 18.7883 17.8885 17 16.1245 15.2315 14.3178 13.4164 12.53 11.6619 10.7703 9.84886 8.94427 8.06226 7.2111 6.32456 5.38516 4.47214 3.60555 2.82843 2.23607 1.41421 1 0 1 1.41421 2.23607 3.16228 4.12311 5 5.83095 6.7082 7.61577 8.544 9.43398 10.2956 9.84886 8.94427 8.06226 7.2111 6.32456 5.38516 4.47214 3.60555 2.82843 2 1 0 0 1 1.41421 2.23607 3.16228 4.12311 5 5.83095 6.7082 7.61577 8.48528 9.21954 10 10.8167 11.6619 12.53 13.4164 14.3178 15.2315 16.1245 17 17.8045 18.6011 19.4165 20.2485 21.095 21.9545 22.8254 23.7065 24.5967 25.4951 26.4008 27.2029 28.0179 28.8444 29.6816 30.5287 31.3847 32.2025 33.0151 33.8378 34.6699 35.5106 36.3593 37.2156 38.0789 38.9487 39.8246 40.6079 41.4005 42.2019 43.0116 43.8292 44.6542 45.4863 46.3249 47.1699 48.0104 48.8262 49.6488 50.4777 51.3128 52.1536 53 53.8238 54.6443 55.4707 56.3028 57.1402 57.9828 57 56 55 54 53 52 51 50 49 48 47 46 45 44 43 42 41 40 39 38 37 36 35 34 33 32 31 30 29 28 27 26 25 24 23 22 21 20 19 18 17
58 59 60 61 62 63 64 65 66 67 68 69 70 71 72 73 74 75 76 77 78 79 80 81 82 83 84 85 86 87 88 89 90 91 92 93 94 95 96 97 98 99 100 101 102 103 104 105 106 107 108 109 110 110.114 109.343 108.577 107.815 107.056 106.301 105.551 104.805 104.062 103.325 102.591 101.863 101.139 100.419 99.7046 98.9949 98.2904 97.5807 96.8762 96.1665 95.462 94.7523 94.0479 93.3381 92.6337 91.9239 91.2195 90.5097 89.8053 89.0955 88.3912 87.6812 86.977 86.267 85.5628 84.8528 84.1487 83.4386 82.7345 82.0244 81.3204 80.6226 79.9062 79.196 78.492 77.7946 77.1038 76.4199 75.743 75.0733 74.411 73.7564 73.1095 72.4707 71.8401 71.218 70.6045 70 69.3542 68.6804 68.0147 67.3573 66.7083 66.0681 65.437 64.8151 64.2028 63.6003 63.0079 62.426 61.8547 61.2944 60.7454 60.208 59.6406 59.0339 58.4123 57.8014 57.2014 56.6127 56.0357 55.4707 54.9181 54.3783 53.8238 53.2541 52.6973 52.1536 51.614 51.0392 50.4777 49.93 49.3964 48.8774 48.3735 47.8853 47.4131 46.9574 46.5188 46.0652 45.618 45.1774 44.6542 44.1022 43.566 43.0465 42.5441 42.0595 41.5933 41.1461 40.7063 40.2492 39.8121 39.3573 38.9102 38.4708 38.0132 37.5766 37.1618 36.7696 36.4006 36.0555 35.7351 35.3412 34.8855 34.4384 34 33.541 33.1059 32.6956 32.311 31.9531 31.6228 31.3209 31.0161 30.6757 30.3645 29.9666 29.5466 29.1548 28.7924 28.4605 28.1603 27.8927 27.6586 27.4591 27.2029 26.9258 26.5707 26.2488 25.9615 25.632 25.2982 25 24.7386 24.5153 24.3311 24.0416 23.7697 23.5372 23.3452 23.0868 22.8035 22.561 22.3607 22.2036 22.0907 21.8403 21.587 21.3776 21.2132 21.095 20.8806 20.6155 20.3961 20.2237 20.0998 20.025 19.9249 19.6469 19.4165 19.2354 19.105 19.0263 19 19 18.9737 18.6815 18.4391 18.2483 18.1108 18.0278 18 18 18 18 18 18 18 18 17.72 17.4642 17.2627 17.1172 17.0294 17 17 17 17 17 17 17 17 17 17 17 17 17 17 17 17 17 17 17 17 17 17 17 17 17 17.0294 17.1172 17.2627 17.4642 17.72 18 18 18 18 18 18 18 18 18 18.0278 18.1108 18.2483 18.4391 18.6815 18.9737 19 19 19 19.0263 19.105 19.2354 19.4165 19.6469 19.9249 20 20.025 20.0998 20.2237 20.3961 20.6155 20.8806 21 21.0238 21.095 21.2132 21.3776 21.587 21.8403 22.0227 22.0907 22.2036 22.3607 22.561 22.8035 23.0868 23.3452 23.5372 23.7697 24.0416 24.1868 24.3311 24.5153 24.7386 25 25.1794 25.318 25.4951 25.7099 25.9615 26.2488 26.4764 26.6833 26.9258 27.2029 27.4591 27.6586 27.8927 28.1603 28.4429 28.6356 28.8617 29.1204 29.4109 29.7321 30.0832 30.3645 30.5941 30.8058 29.9666 29.0689 28.178 27.2947 26.4008 25.4951 24.5967 23.7065 22.8254 21.9317 21.0238 20.1246 19.2354 18.3576 17.4642 16.5529 15.6525 14.7648 13.8924 13 12.083 11.1803 10.2956 9.43398 8.544 7.61577 6.7082 5.83095 5 4.24264 3.60555 2.82843 2 1 0 0 1 2 2.82843 3.60555 4.47214 5.38516 6.32456 7.2111 8.06226 8.94427 9.84886 10.2956 9.43398 8.544 7.61577 6.7082 5.83095 5 4.12311 3.16228 2.23607 1.41421 1 0 0 1 2 2.82843 3.60555 4.47214 5.38516 6.32456 7.07107 7.81025 8.60233 9.43398 10.2956 11.1803 12.083 13 13.8924 14.7648 15.6205 16.4012 17.2047 18.0278 18.868 19.7231 20.5913 21.4709 22.3607 23.2594 24.1661 25 25.807 26.6271 27.4591 28.3019 29.1548 30 30.8058 31.6228 32.45 33.2866 34.1321 34.9857 35.8469 36.7151 37.5899 38.4187 39.2046 40 40.8044 41.6173 42.4382 43.2666 44.1022 44.9444 45.793 46.6154 47.4342 48.2597 49.0918 49.93 50.774 51.614 52.4309 53.2541 54.0833 54.9181 55.7584 56.6039 57.4282 57 56 55 54 53 52 51 50 49 48 47 46 45 44 43 42 41 40 39 38 37 36 35 34 33 32 31 30 29 28 27 26 25 24 23 22 21 20 19 18 17
58 59 60 61 62 63 64 65 66 67 68 69 70 71 72 73 74 75 76 77 78 79 80 81 82 83 84 85 86 87 88 89 90 91 92 93 94 95 96 97 98 99 100 101 102 103 104 105 106 107 108 109 110 110.752 109.986 109.225 108.467 107.713 106.963 106.217 105.475 104.738 104.005 103.276 102.552 101.833 101.119 100.409 99.7046 98.9949 98.2904 97.5807 96.8762 96.1665 95.462 94.7523 94.0479 93.3381 92.6337 91.9239 91.2195 90.5097 89.8053 89.0955 88.3912 87.6812 86.977 86.267 85.5628 84.8528 84.1487 83.4386 82.7345 82.0366 81.3204 80.6102 79.9062 79.2086 78.5175 77.8332 77.1557 76.4853 75.8222 75.1665 74.5185 73.8783 73.2462 72.6223 72.0069 71.4003 70.7672 70.0928 69.4262 68.7677 68.1175 67.4759 66.8431 66.2193 65.6049 65 64.405 63.8201 63.2456 62.6817 62.1289 61.5873 61.0328 60.4401 59.8164 59.203 58.6003 58.0086 57.4282 56.8595 56.3028 55.7584 55.2178 54.6443 54.0833 53.535 53 52.4309 51.8652 51.3128 50.774 50.2494 49.7393 49.2443 48.7647 48.3011 47.8539 47.4131 46.9574 46.5188 46.0435 45.4863 44.9444 44.4185 43.909 43.4166 42.9418 42.4853 42.0476 41.5933 41.1461 40.7063 40.2492 39.8121 39.3573 38.9102 38.4838 38.0789 37.6962 37.3363 37 36.6742 36.2353 35.7771 35.3412 34.8855 34.4384 34.0147 33.6155 33.2415 32.8938 32.573 32.28 31.9531 31.6228 31.305 30.8707 30.4631 30.0832 29.7321 29.4109 29.1204 28.8617 28.6356 28.4429 28.1603 27.8568 27.5136 27.2029 26.9258 26.5707 26.2488 25.9615 25.7099 25.4951 25.2982 25 24.7386 24.5153 24.3311 24.0416 23.7697 23.5372 23.3452 23.1948 23.0868 22.8035 22.561 22.3607 22.2036 22.0907 21.8403 21.587 21.3776 21.2132 21.095 21.0238 20.8806 20.6155 20.3961 20.2237 20.0998 20.025 20 20 19.9249 19.6469 19.4165 19.2354 19.105 19.0263 19 19 19 19 19 19 19 18.9737 18.6815 18.4391 18.2483 18.1108 18.0278 18 18 18 18 18 18 18 18 18 18 18 18 18 18 18 18 18 18 18 18 18 18 18 18 18 18.0278 18.1108 18.2483 18.4391 18.6815 18.9737 19 19 19 19 19 19 19 19 19.0263 19.105 19.2354 19.4165 19.6469 19.9249 20 20 20 20.025 20.0998 20.2237 20.3961 20.6155 20.8806 21 21.0238 21.095 21.2132 21.3776 21.587 21.8403 22 22.0227 22.0907 22.2036 22.3607 22.561 22.8035 23.0217 23.0868 23.1948 23.3452 23.5372 23.7697 24.0416 24.3311 24.5153 24.7386 25 25.1794 25.318 25.4951 25.7099 25.9615 26.1725 26.3059 26.4764 26.6833 26.9258 27.2029 27.4591 27.6586 27.8927 28.1603 28.4429 28.6356 28.8617 29.1204 29.4109 29.6142 29.8329 30.0832 30.3645 30.6757 31.0161 31.3209 31.5753 31.305 30.4138 29.5296 28.6356 27.7308 26.8328 25.9422 25.0599 24.1661 23.2594 22.3607 21.4709 20.5913 19.6977 18.7883 17.8885 17 16.1245 15.2315 14.3178 13.4164 12.53 11.6619 10.7703 9.84886 8.94427 8.06226 7.2111 6.40312 5.65685 5 4.12311 3.16228 2.23607 1.41421 1 0 1 1.41421 2.23607 3.16228 4.12311 5 5.83095 6.7082 7.61577 8.48528 9.21954 10 9.84886 8.94427 8.06226 7.2111 6.32456 5.38516 4.47214 3.60555 2.82843 2.23607 1.41421 1 0 1 1.41421 2.23607 3.16228 4.12311 5 5.65685 6.40312 7.2111 8.06226 8.94427 9.84886 10.7703 11.6619 12.53 13.4164 14.2127 15 15.8114 16.6433 17.4929 18.3576 19.2354 20.1246 21.0238 21.9317 22.8035 23.6008 24.4131 25.2389 26.0768 26.9258 27.7849 28.6007 29.4109 30.2324 31.0644 31.9061 32.7567 33.6155 34.4819 35.3553 36.2353 37.0135 37.8021 38.6005 39.4081 40.2244 41.0488 41.8808 42.72 43.566 44.4072 45.2217 46.0435 46.8722 47.7074 48.5489 49.3964 50.2195 51.0392 51.8652 52.6973 53.535 54.3783 55.2178 56.0357 56.8507 57 56 55 54 53 52 51 50 49 48 47 46 45 44 43 42 41 40 39 38 37 36 35 34 33 32 31 30 29 28 27 26 25 24 23 22 21 20 19 18 17
58 59 60 61 62 63 64 65 66 67 68 69 70 71 72 73 74 75 76 77 78 79 80 81 82 83 84 85 86 87 88 89 90 91 92 93 94 95 96 97 98 99 100 101 102 103 104 105 106 107 108 109 110 111 110.635 109.877 109.124 108.374 107.629 106.888 106.151 105.418 104.69 103.966 103.247 102.533 101.823 101.119 100.409 99.7046 98.9949 98.2904 97.5807 96.8762 96.1665 95.462 94.7523 94.0479 93.3381 92.6337 91.9239 91.2195 90.5097 89.8053 89.0955 88.3912 87.6812 86.977 86.267 85.5628 84.8528 84.1487 83.4506 82.7345 82.0244 81.3204 80.6226 79.9312 79.2465 78.5684 77.8974 77.2334 76.5768 75.9276 75.2861 74.6525 74.027 73.4098 72.8011 72.1803 71.5052 70.8378 70.1783 69.527 68.884 68.2495 67.624 67.0075 66.4003 65.8027 65.215 64.6375 64.0703 63.5138 62.9682 62.426 61.8466 61.2209 60.6053 60 59.4054 58.8218 58.2495 57.6888 57.1402 56.6039 56.0357 55.4707 54.9181 54.3783 53.8238 53.2541 52.6973 52.1536 51.6236 51.1077 50.6063 50.1199 49.6488 49.1935 48.7545 48.3011 47.8539 47.4131 46.8722 46.3249 45.793 45.2769 44.7772 44.2945 43.8292 43.382 42.9418 42.4853 42.0476 41.5933 41.1461 40.7063 40.2492 39.8121 39.3954 39 38.6264 38.2753 37.9473 37.5766 37.1214 36.6742 36.2353 35.7771 35.3412 34.9285 34.5398 34.176 33.8378 33.5261 33.2415 32.8938 32.573 32.2025 31.7805 31.3847 31.0161 30.6757 30.3645 30.0832 29.8329 29.6142 29.4109 29.1204 28.7924 28.4605 28.1603 27.8568 27.5136 27.2029 26.9258 26.6833 26.4764 26.2488 25.9615 25.7099 25.4951 25.2982 25 24.7386 24.5153 24.3311 24.1868 24.0416 23.7697 23.5372 23.3452 23.1948 23.0868 22.8035 22.561 22.3607 22.2036 22.0907 22.0227 21.8403 21.587 21.3776 21.2132 21.095 21.0238 21 21 20.8806 20.6155 20.3961 20.2237 20.0998 20.025 20 20 20 20 20 20 20 19.9249 19.6469 19.4165 19.2354 19.105 19.0263 19 19 19 19 19 19 19 19 19 19 19 19 19 19 19 19 19 19 19 19 19 19 19 19 19 19.0263 19.105 19.2354 19.4165 19.6469 19.9249 20 20 20 20 20 20 20 20 20.025 20.0998 20.2237 20.3961 20.6155 20.8806 21 21 21 21.0238 21.095 21.2132 21.3776 21.587 21.8403 22 22.0227 22.0907 22.2036 22.3607 22.561 22.8035 23 23.0217 23.0868 23.1948 23.3452 23.5372 23.7697 24.0208 24.0832 24.1868 24.3311 24.5153 24.7386 25 25.2982 25.4951 25.7099 25.9615 26.1725 26.3059 26.4764 26.6833 26.9258 27.1662 27.2947 27.4591 27.6586 27.8927 28.1603 28.4429 28.6356 28.8617 29.1204 29.4109 29.6142 29.8329 30.0832 30.3645 30.5941 30.8058 31.0483 31.3209 31.6228 31.9531 32.28 32.5576 31.7648 30.8707 29.9666 29.0689 28.178 27.2947 26.4008 25.4951 24.5967 23.7065 22.8254 21.9317 21.0238 20.1246 19.2354 18.3576 17.4642 16.5529 15.6525 14.7648 13.8924 13 12.083 11.1803 10.2956 9.43398 8.60233 7.81025 7.07107 6.32456 5.38516 4.47214 3.60555 2.82843 2 1 0 0 1 2 2.82843 3.60555 4.47214 5.38516 6.32456 7.07107 7.81025 8.60233 9.43398 10.2956 9.43398 8.544 7.61577 6.7082 5.83095 5 4.24264 3.60555 2.82843 2 1 0 0 1 2 2.82843 3.60555 4.24264 5 5.83095 6.7082 7.61577 8.544 9.43398 10.2956 11.1803 12.0416 12.8062 13.6015 14.4222 15.2643 16.1245 17 17.8885 18.7883 19.6977 20.5913 21.4009 22.2036 23.0217 23.8537 24.6982 25.5539 26.4008 27.2029 28.0179 28.8444 29.6816 30.5287 31.3847 32.249 33.121 34 34.8281 35.609 36.4006 37.2022 38.0132 38.833 39.6611 40.4969 41.3401 42.19 43.0116 43.8292 44.6542 45.4863 46.3249 47.1699 48.0104 48.8262 49.6488 50.4777 51.3128 52.1536 53 53.8238 54.6443 55.4437 56.2228 57 56 55 54 53 52 51 50 49 48 47 46 45 44 43 42 41 40 39 38 37 36 35 34 33 32 31 30 29 28 27 26 25 24 23 22 21 20 19 18 17
58 59 60 61 62 63 64 65 66 67 68 69 70 71 72 73 74 75 76 77 78 79 80 81 82 83 84 85 86 87 88 89 90 91 92 93 94 95 96 97 98 99 100 101 102 103 104 105 106 107 108 109 110 111 111.288 110.535 109.786 109.041 108.301 107.564 106.832 106.104 105.38 104.661 103.947 103.238 102.533 101.823 101.119 100.409 99.7046 98.9949 98.2904 97.5807 96.8762 96.1665 95.462 94.7523 94.0479 93.3381 92.6337 91.9239 91.2195 90.5097 89.8053 89.0955 88.3912 87.6812 86.977 86.267 85.5628 84.8646 84.1487 83.4386 82.7345 82.0366 81.3449 80.6598 79.9812 79.3095 78.6448 77.9872 77.3369 76.6942 76.0592 75.4321 74.8131 74.2024 73.5935 72.9178 72.2496 71.5891 70.9366 70.2922 69.6563 69.029 68.4105 67.8012 67.2012 66.6108 66.0303 65.4599 64.8999 64.3506 63.8122 63.2456 62.6259 62.0081 61.4003 60.803 60.2163 59.6406 59.0762 58.5235 57.9828 57.4282 56.8595 56.3028 55.7584 55.2178 54.6443 54.0833 53.535 53 52.4786 51.9711 51.4781 51 50.5371 50.0899 49.6488 49.1935 48.7545 48.2597 47.7074 47.1699 46.6476 46.1411 45.6508 45.1774 44.7214 44.2832 43.8292 43.382 42.9418 42.4853 42.0476 41.5933 41.1461 40.7185 40.3113 39.9249 39.5601 39.2173 38.8973 38.4708 38.0132 37.5766 37.1214 36.6742 36.2491 35.8469 35.4683 35.1141 34.7851 34.4819 34.176 33.8378 33.5261 33.1059 32.6956 32.311 31.9531 31.6228 31.3209 31.0483 30.8058 30.5941 30.3645 30.0832 29.7321 29.4109 29.1204 28.7924 28.4605 28.1603 27.8927 27.6586 27.4591 27.2029 26.9258 26.6833 26.4764 26.2488 25.9615 25.7099 25.4951 25.318 25.1794 25 24.7386 24.5153 24.3311 24.1868 24.0416 23.7697 23.5372 23.3452 23.1948 23.0868 23.0217 22.8035 22.561 22.3607 22.2036 22.0907 22.0227 22 22 21.8403 21.587 21.3776 21.2132 21.095 21.0238 21 21 21 21 21 21 21 20.8806 20.6155 20.3961 20.2237 20.0998 20.025 20 20 20 20 20 20 20 20 20 20 20 20 20 20 20 20 20 20 20 20 20 20 20 20 20 20.025 20.0998 20.2237 20.3961 20.6155 20.8806 21 21 21 21 21 21 21 21 21.0238 21.095 21.2132 21.3776 21.587 21.8403 22 22 22 22.0227 22.0907 22.2036 22.3607 22.561 22.8035 23 23.0217 23.0868 23.1948 23.3452 23.5372 23.7697 24 24.0208 24.0832 24.1868 24.3311 24.5153 24.7386 25 25.0799 25.1794 25.318 25.4951 25.7099 25.9615 26.2488 26.4764 26.6833 26.9258 27.1662 27.2947 27.4591 27.6586 27.8927 28.1603 28.2843 28.4429 28.6356 28.8617 29.1204 29.4109 29.6142 29.8329 30.0832 30.3645 30.5941 30.8058 31.0483 31.3209 31.5753 31.7805 32.0156 32.28 32.573 32.8938 33.2415 33.1059 32.2025 31.305 30.4138 29.5296 28.6356 27.7308 26.8328 25.9422 25.0599 24.1661 23.2594 22.3607 21.4709 20.5913 19.6977 18.7883 17.8885 17 16.1245 15.2315 14.3178 13.4164 12.53 11.6619 10.8167 10 9.21954 8.48528 7.61577 6.7082 5.83095 5 4.12311 3.16228 2.23607 1.41421 1 0 1 1.41421 2.23607 3.16228 4.12311 5 5.65685 6.40312 7.2111 8.06226 8.94427 9.84886 9.84886 8.94427 8.06226 7.2111 6.40312 5.65685 5 4.12311 3.16228 2.23607 1.41421 1 0 1 1.41421 2.23607 2.82843 3.60555 4.47214 5.38516 6.32456 7.2111 8.06226 8.94427 9.84886 10.6301 11.4018 12.2066 13.0384 13.8924 14.7648 15.6525 16.5529 17.4642 18.3576 19.2094 20 20.8087 21.6333 22.4722 23.3238 24.1868 25 25.807 26.6271 27.4591 28.3019 29.1548 30.0167 30.8869 31.7648 32.6497 33.4216 34.2053 35 35.805 36.6197 37.4433 38.2753 39.1152 39.9625 40.8044 41.6173 42.4382 43.2666 44.1022 44.9444 45.793 46.6154 47.4342 48.2597 49.0918 49.93 50.774 51.614 52.4309 53.2541 54.037 54.8179 55.6058 56.4004 56 55 54 53 52 51 50 49 48 47 46 45 44 43 42 41 40 39 38 37 36 35 34 33 32 31 30 29 28 27 26 25 24 23 22 21 20 19 18 17
58 59 60 61 62 63 64 65 66 67 68 69 70 71 72 73 74 75 76 77 78 79 80 81 82 83 84 85 86 87 88 89 90 91 92 93 94 95 96 97 98 99 100 101 102 103 104 105 106 107 108 109 110 111 111.946 111.198 110.454 109.713 108.977 108.245 107.517 106.794 106.075 105.361 104.652 103.947 103.238 102.533 101.823 101.119 100.409 99.7046 98.9949 98.2904 97.5807 96.8762 96.1665 95.462 94.7523 94.0479 93.3381 92.6337 91.9239 91.2195 90.5097 89.8053 89.0955 88.3912 87.6812 86.977 86.2786 85.5628 84.8528 84.1487 83.4506 82.7587 82.0731 81.3941 80.7217 80.0562 79.3977 78.7464 78.1025 77.4661 76.8375 76.2168 75.6042 75 74.3303 73.6614 73 72.3464 71.7008 71.0634 70.4344 69.814 69.2026 68.6003 68.0074 67.424 66.8506 66.2873 65.7343 65.192 64.6375 64.0312 63.4114 62.8013 62.2013 61.6117 61.0328 60.4649 59.9083 59.3633 58.8218 58.2495 57.6888 57.1402 56.6039 56.0357 55.4707 54.9181 54.3783 53.8516 53.3385 52.8394 52.3546 51.8845 51.4296 50.9902 50.5371 50.0899 49.6488 49.0918 48.5489 48.0208 47.5079 47.0106 46.5296 46.0652 45.618 45.1774 44.7214 44.2832 43.8292 43.382 42.9418 42.4853 42.0476 41.6293 41.2311 40.8534 40.4969 40.1622 39.8121 39.3573 38.9102 38.4708 38.0132 37.5766 37.1618 36.7696 36.4006 36.0555 35.7351 35.4401 35.1141 34.7851 34.4384 34.0147 33.6155 33.2415 32.8938 32.573 32.28 32.0156 31.7805 31.5753 31.3209 31.0161 30.6757 30.3645 30.0832 29.7321 29.4109 29.1204 28.8617 28.6356 28.4429 28.1603 27.8927 27.6586 27.4591 27.2029 26.9258 26.6833 26.4764 26.3059 26.1725 25.9615 25.7099 25.4951 25.318 25.1794 25 24.7386 24.5153 24.3311 24.1868 24.0832 24.0208 23.7697 23.5372 23.3452 23.1948 23.0868 23.0217 23 23 22.8035 22.561 22.3607 22.2036 22.0907 22.0227 22 22 22 22 22 22 22 21.8403 21.587 21.3776 21.2132 21.095 21.0238 21 21 21 21 21 21 21 21 21 21 21 21 21 21 21 21 21 21 21 21 21 21 21 21 21 21.0238 21.095 21.2132 21.3776 21.587 21.8403 22 22 22 22 22 22 22 22 22.0227 22.0907 22.2036 22.3607 22.561 22.8035 23 23 23 23.0217 23.0868 23.1948 23.3452 23.5372 23.7697 24 24.0208 24.0832 24.1868 24.3311 24.5153 24.7386 25 25.02 25.0799 25.1794 25.318 25.4951 25.7099 25.9615 26.0768 26.1725 26.3059 26.4764 26.6833 26.9258 27.2029 27.4591 27.6586 27.8927 28.1603 28.2843 28.4429 28.6356 28.8617 29.1204 29.2746 29.4279 29.6142 29.8329 30.0832 30.3645 30.5941 30.8058 31.0483 31.3209 31.5753 31.7805 32.0156 32.28 32.5576 32.7567 32.9848 33.2415 33.5261 33.8378 34.176 33.541 32.6497 31.7648 30.8707 29.9666 29.0689 28.178 27.2947 26.4008 25.4951 24.5967 23.7065 22.8254 21.9317 21.0238 20.1246 19.2354 18.3576 17.4642 16.5529 15.6525 14.7648 13.8924 13.0384 12.2066 11.4018 10.6301 9.84886 8.94427 8.06226 7.2111 6.32456 5.38516 4.47214 3.60555 2.82843 2 1 0 0 1 2 2.82843 3.60555 4.24264 5 5.83095 6.7082 7.61577 8.544 9.43398 10.2956 9.43398 8.60233 7.81025 7.07107 6.32456 5.38516 4.47214 3.60555 2.82843 2 1 0 0 1 1.41421 2.23607 3.16228 4.12311 5 5.83095 6.7082 7.61577 8.48528 9.21954 10 10.8167 11.6619 12.53 13.4164 14.3178 15.2315 16.1245 17 17.8045 18.6011 19.4165 20.2485 21.095 21.9545 22.8035 23.6008 24.4131 25.2389 26.0768 26.9258 27.7849 28.6531 29.5296 30.4138 31.241 32.0156 32.8024 33.6006 34.4093 35.2278 36.0555 36.8917 37.7359 38.5876 39.4081 40.2244 41.0488 41.8808 42.72 43.566 44.4072 45.2217 46.0435 46.8722 47.7074 48.5489 49.3964 50.2195 51.0392 51.8556 52.6308 53.4135 54.2033 55 55.8032 56 55 54 53 52 51 50 49 48 47 46 45 44 43 42 41 40 39 38 37 36 35 34 33 32 31 30 29 28 27 26 25 24 23 22 21 20 19 18 17
58 59 60 61 62 63 64 65 66 67 68 69 70 71 72 73 74 75 76 77 78 79 80 81 82 83 84 85 86 87 88 89 90 91 92 93 94 95 96 97 98 99 100 101 102 103 104 105 106 107 108 109 110 111 112 111.866 111.126 110.39 109.659 108.931 108.208 107.49 106.775 106.066 105.361 104.652 103.947 103.238 102.533 101.823 101.119 100.409 99.7046 98.9949 98.2904 97.5807 96.8762 96.1665 95.462 94.7523 94.0479 93.3381 92.6337 91.9239 91.2195 90.5097 89.8053 89.0955 88.3912 87.6926 86.977 86.267 85.5628 84.8646 84.1724 83.4865 82.807 82.134 81.4678 80.8084 80.1561 79.511 78.8733 78.2432 77.6209 77.0065 76.4003 75.743 75.0733 74.411 73.7564 73.1095 72.4707 71.8401 71.218 70.6045 70 69.4046 68.8186 68.2422 67.6757 67.1193 66.5733 66.0303 65.437 64.8151 64.2028 63.6003 63.0079 62.426 61.8547 61.2944 60.7454 60.208 59.6406 59.0762 58.5235 57.9828 57.4282 56.8595 56.3028 55.7584 55.2268 54.7083 54.2033 53.7122 53.2353 52.7731 52.3259 51.8845 51.4296 50.9902 50.4777 49.93 49.3964 48.8774 48.3735 47.8853 47.4131 46.9574 46.5188 46.0652 45.618 45.1774 44.7214 44.2832 43.8292 43.382 42.9535 42.5441 42.1545 41.7852 41.4367 41.1096 40.7063 40.2492 39.8121 39.3573 38.9102 38.4838 38.0789 37.6962 37.3363 37 36.6879 36.4006 36.0555 35.7351 35.3412 34.9285 34.5398 34.176 33.8378 33.5261 33.2415 32.9848 32.7567 32.5576 32.28 31.9531 31.6228 31.3209 31.0161 30.6757 30.3645 30.0832 29.8329 29.6142 29.4109 29.1204 28.8617 28.6356 28.4429 28.1603 27.8927 27.6586 27.4591 27.2947 27.1662 26.9258 26.6833 26.4764 26.3059 26.1725 25.9615 25.7099 25.4951 25.318 25.1794 25.0799 25 24.7386 24.5153 24.3311 24.1868 24.0832 24.0208 24 24 23.7697 23.5372 23.3452 23.1948 23.0868 23.0217 23 23 23 23 23 23 23 22.8035 22.561 22.3607 22.2036 22.0907 22.0227 22 22 22 22 22 22 22 22 22 22 22 22 22 22 22 22 22 22 22 22 22 22 22 22 22 22.0227 22.0907 22.2036 22.3607 22.561 22.8035 23 23 23 23 23 23 23 23 23.0217 23.0868 23.1948 23.3452 23.5372 23.7697 24 24 24 24.0208 24.0832 24.1868 24.3311 24.5153 24.7386 25 25.02 25.0799 25.1794 25.318 25.4951 25.7099 25.9615 26.0192 26.0768 26.1725 26.3059 26.4764 26.6833 26.9258 27.074 27.1662 27.2947 27.4591 27.6586 27.8927 28.1603 28.4429 28.6356 28.8617 29.1204 29.2746 29.4279 29.6142 29.8329 30.0832 30.2655 30.4138 30.5941 30.8058 31.0483 31.3209 31.5753 31.7805 32.0156 32.28 32.5576 32.7567 32.9848 33.2415 33.5261 33.7343 33.9559 34.2053 34.4819 34.7851 34.8855 34 33.1059 32.2025 31.305 30.4138 29.5296 28.6356 27.7308 26.8328 25.9422 25.0599 24.1661 23.2594 22.3607 21.4709 20.5913 19.6977 18.7883 17.8885 17 16.1245 15.2643 14.4222 13.6015 12.8062 12.0416 11.1803 10.2956 9.43398 8.544 7.61577 6.7082 5.83095 5 4.12311 3.16228 2.23607 1.41421 1 0 1 1.41421 2.23607 2.82843 3.60555 4.47214 5.38516 6.32456 7.2111 8.06226 8.94427 9.84886 10 9.21954 8.48528 7.61577 6.7082 5.83095 5 4.12311 3.16228 2.23607 1.41421 1 0 0 1 2 2.82843 3.60555 4.47214 5.38516 6.32456 7.07107 7.81025 8.60233 9.43398 10.2956 11.1803 12.083 13 13.8924 14.7648 15.6205 16.4012 17.2047 18.0278 18.868 19.7231 20.5913 21.4009 22.2036 23.0217 23.8537 24.6982 25.5539 26.4197 27.2947 28.178 29.0689 29.8329 30.6105 31.4006 32.2025 33.0151 33.8378 34.6699 35.5106 36.3593 37.2022 38.0132 38.833 39.6611 40.4969 41.3401 42.19 43.0116 43.8292 44.6542 45.4863 46.3249 47.1699 48.0104 48.8262 49.6488 50.448 51.225 52.0096 52.8015 53.6004 54.4059 55.2178 56 55 54 53 52 51 50 49 48 47 46 45 44 43 42 41 40 39 38 37 36 35 34 33 32 31 30 29 28 27 26 25 24 23 22 21 20 19 18 17
58 59 60 61 62 63 64 65 66 67 68 69 70 71 72 73 74 75 76 77 78 79 80 81 82 83 84 85 86 87 88 89 90 91 92 93 94 95 96 97 98 99 100 101 102 103 104 105 106 107 108 109 110 111 112 112.539 111.803 111.072 110.345 109.622 108.904 108.19 107.48 106.775 106.066 105.361 104.652 103.947 103.238 102.533 101.823 101.119 100.409 99.7046 98.9949 98.2904 97.5807 96.8762 96.1665 95.462 94.7523 94.0479 93.3381 92.6337 91.9239 91.2195 90.5097 89.8053 89.1067 88.3912 87.6812 86.977 86.2786 85.5862 84.8999 84.2199 83.5464 82.8794 82.2192 81.5659 80.9197 80.2808 79.6492 79.0253 78.4092 77.801 77.1557 76.4853 75.8222 75.1665 74.5185 73.8783 73.2462 72.6223 72.0069 71.4003 70.8025 70.214 69.6348 69.0652 68.5055 67.9559 67.4166 66.8431 66.2193 65.6049 65 64.405 63.8201 63.2456 62.6817 62.1289 61.5873 61.0328 60.4649 59.9083 59.3633 58.8218 58.2495 57.6888 57.1402 56.6039 56.0803 55.5698 55.0727 54.5894 54.1202 53.6656 53.2259 52.7731 52.3259 51.8652 51.3128 50.774 50.2494 49.7393 49.2443 48.7647 48.3011 47.8539 47.4131 46.9574 46.5188 46.0652 45.618 45.1774 44.7214 44.2832 43.8634 43.4626 43.0813 42.72 42.3792 42.0476 41.5933 41.1461 40.7063 40.2492 39.8121 39.3954 39 38.6264 38.2753 37.9473 37.6431 37.3363 37 36.6742 36.2491 35.8469 35.4683 35.1141 34.7851 34.4819 34.2053 33.9559 33.7343 33.5261 33.2415 32.8938 32.573 32.28 31.9531 31.6228 31.3209 31.0483 30.8058 30.5941 30.3645 30.0832 29.8329 29.6142 29.4109 29.1204 28.8617 28.6356 28.4429 28.2843 28.1603 27.8927 27.6586 27.4591 27.2947 27.1662 26.9258 26.6833 26.4764 26.3059 26.1725 26.0768 25.9615 25.7099 25.4951 25.318 25.1794 25.0799 25.02 25 25 24.7386 24.5153 24.3311 24.1868 24.0832 24.0208 24 24 24 24 24 24 24 23.7697 23.5372 23.3452 23.1948 23.0868 23.0217 23 23 23 23 23 23 23 23 23 23 23 23 23 23 23 23 23 23 23 23 23 23 23 23 23 23.0217 23.0868 23.1948 23.3452 23.5372 23.7697 24 24 24 24 24 24 24 24 24.0208 24.0832 24.1868 24.3311 24.5153 24.7386 25 25 25 25.02 25.0799 25.1794 25.318 25.4951 25.7099 25.9615 26.0192 26.0768 26.1725 26.3059 26.4764 26.6833 26.9258 27.0185 27.074 27.1662 27.2947 27.4591 27.6586 27.8927 28.0713 28.1603 28.2843 28.4429 28.6356 28.8617 29.1204 29.4109 29.6142 29.8329 30.0832 30.2655 30.4138 30.5941 30.8058 31.0483 31.257 31.4006 31.5753 31.7805 32.0156 32.28 32.5576 32.7567 32.9848 33.2415 33.5261 33.7343 33.9559 34.2053 34.4819 34.7131 34.9285 35.171 35.4401 35.7351 35.3412 34.4384 33.541 32.6497 31.7648 30.8707 29.9666 29.0689 28.178 27.2947 26.4008 25.4951 24.5967 23.7065 22.8254 21.9317 21.0238 20.1246 19.2354 18.3576 17.4929 16.6433 15.8114 15 14.2127 13.4164 12.53 11.6619 10.7703 9.84886 8.94427 8.06226 7.2111 6.32456 5.38516 4.47214 3.60555 2.82843 2 1 0 0 1 1.41421 2.23607 3.16228 4.12311 5 5.83095 6.7082 7.61577 8.544 9.43398 10.2956 9.84886 8.94427 8.06226 7.2111 6.32456 5.38516 4.47214 3.60555 2.82843 2.23607 1.41421 1 0 1 1.41421 2.23607 3.16228 4.12311 5 5.65685 6.40312 7.2111 8.06226 8.94427 9.84886 10.7703 11.6619 12.53 13.4164 14.2127 15 15.8114 16.6433 17.4929 18.3576 19.2094 20 20.8087 21.6333 22.4722 23.3238 24.1868 25.0599 25.9422 26.8328 27.6586 28.4253 29.2062 30 30.8058 31.6228 32.45 33.2866 34.1321 34.9857 35.805 36.6197 37.4433 38.2753 39.1152 39.9625 40.8044 41.6173 42.4382 43.2666 44.1022 44.9444 45.793 46.6154 47.4342 48.2597 49.0408 49.8197 50.6063 51.4004 52.2015 53.0094 53.8238 54.6443 55.4437 55 54 53 52 51 50 49 48 47 46 45 44 43 42 41 40 39 38 37 36 35 34 33 32 31 30 29 28 27 26 25 24 23 22 21 20 19 18 17
58 59 60 61 62 63 64 65 66 67 68 69 70 71 72 73 74 75 76 77 78 79 80 81 82 83 84 85 86 87 88 89 90 91 92 93 94 95 96 97 98 99 100 101 102 103 104 105 106 107 108 109 110 111 112 113 112.486 111.759 111.036 110.318 109.604 108.894 108.19 107.48 106.775 106.066 105.361 104.652 103.947 103.238 102.533 101.823 101.119 100.409 99.7046 98.9949 98.2904 97.5807 96.8762 96.1665 95.462 94.7523 94.0479 93.3381 92.6337 91.9239 91.2195 90.5207 89.8053 89.0955 88.3912 87.6926 87 86.3134 85.6329 84.9588 84.2912 83.6301 82.9759 82.3286 81.6884 81.0555 80.4301 79.8123 79.2023 78.5684 77.8974 77.2334 76.5768 75.9276 75.2861 74.6525 74.027 73.4098 72.8011 72.2011 71.6101 71.0282 70.4557 69.8928 69.3397 68.7968 68.2422 67.624 67.0075 66.4003 65.8027 65.215 64.6375 64.0703 63.5138 62.9682 62.426 61.8547 61.2944 60.7454 60.208 59.6406 59.0762 58.5235 57.9828 57.4543 56.9386 56.4358 55.9464 55.4707 55.0091 54.5619 54.1202 53.6656 53.2259 52.6973 52.1536 51.6236 51.1077 50.6063 50.1199 49.6488 49.1935 48.7545 48.3011 47.8539 47.4131 46.9574 46.5188 46.0652 45.618 45.1885 44.7772 44.3847 44.0114 43.6578 43.3244 42.9418 42.4853 42.0476 41.5933 41.1461 40.7185 40.3113 39.9249 39.5601 39.2173 38.8973 38.6005 38.2753 37.9473 37.5766 37.1618 36.7696 36.4006 36.0555 35.7351 35.4401 35.171 34.9285 34.7131 34.4819 34.176 33.8378 33.5261 33.2415 32.8938 32.573 32.28 32.0156 31.7805 31.5753 31.3209 31.0483 30.8058 30.5941 30.3645 30.0832 29.8329 29.6142 29.4279 29.2746 29.1204 28.8617 28.6356 28.4429 28.2843 28.1603 27.8927 27.6586 27.4591 27.2947 27.1662 27.074 26.9258 26.6833 26.4764 26.3059 26.1725 26.0768 26.0192 26 25.9615 25.7099 25.4951 25.318 25.1794 25.0799 25.02 25 25 25 25 25 25 25 24.7386 24.5153 24.3311 24.1868 24.0832 24.0208 24 24 24 24 24 24 24 24 24 24 24 24 24 24 24 24 24 24 24 24 24 24 24 24 24 24.0208 24.0832 24.1868 24.3311 24.5153 24.7386 25 25 25 25 25 25 25 25 25.02 25.0799 25.1794 25.318 25.4951 25.7099 25.9615 26 26 26.0192 26.0768 26.1725 26.3059 26.4764 26.6833 26.9258 27.0185 27.074 27.1662 27.2947 27.4591 27.6586 27.8927 28.0179 28.0713 28.1603 28.2843 28.4429 28.6356 28.8617 29.0689 29.1548 29.2746 29.4279 29.6142 29.8329 30.0832 30.3645 30.5941 30.8058 31.0483 31.257 31.4006 31.5753 31.7805 32.0156 32.249 32.3883 32.5576 32.7567 32.9848 33.2415 33.5261 33.7343 33.9559 34.2053 34.4819 34.7131 34.9285 35.171 35.4401 35.6931 35.9026 36.1386 36.4006 36.6742 35.7771 34.8855 34 33.1059 32.2025 31.305 30.4138 29.5296 28.6356 27.7308 26.8328 25.9422 25.0599 24.1661 23.2594 22.3607 21.4709 20.5913 19.7231 18.868 18.0278 17.2047 16.4012 15.6205 14.7648 13.8924 13 12.083 11.1803 10.2956 9.43398 8.544 7.61577 6.7082 5.83095 5 4.12311 3.16228 2.23607 1.41421 1 0 0 1 2 2.82843 3.60555 4.47214 5.38516 6.32456 7.2111 8.06226 8.94427 9.84886 10.2956 9.43398 8.544 7.61577 6.7082 5.83095 5 4.24264 3.60555 2.82843 2 1 0 0 1 2 2.82843 3.60555 4.24264 5 5.83095 6.7082 7.61577 8.544 9.43398 10.2956 11.1803 12.0416 12.8062 13.6015 14.4222 15.2643 16.1245 17 17.8045 18.6011 19.4165 20.2485 21.095 21.9545 22.8254 23.7065 24.5967 25.4951 26.2488 27.0185 27.8029 28.6007 29.4109 30.2324 31.0644 31.9061 32.7567 33.6006 34.4093 35.2278 36.0555 36.8917 37.7359 38.5876 39.4081 40.2244 41.0488 41.8808 42.72 43.566 44.4072 45.2217 46.0435 46.8615 47.634 48.4149 49.2037 50 50.8035 51.614 52.4309 53.2541 54.037 54.8179 55 54 53 52 51 50 49 48 47 46 45 44 43 42 41 40 39 38 37 36 35 34 33 32 31 30 29 28 27 26 25 24 23 22 21 20 19 18 17
58 59 60 61 62 63 64 65 66 67 68 69 70 71 72 73 74 75 76 77 78 79 80 81 82 83 84 85 86 87 88 89 90 91 92 93 94 95 96 97 98 99 100 101 102 103 104 105 106 107 108 109 110 111 112 113 113.172 112.45 111.732 111.018 110.309 109.604 108.894 108.19 107.48 106.775 106.066 105.361 104.652 103.947 103.238 102.533 101.823 101.119 100.409 99.7046 98.9949 98.2904 97.5807 96.8762 96.1665 95.462 94.7523 94.0479 93.3381 92.6337 91.9348 91.2195 90.5097 89.8053 89.1067 88.4138 87.7269 87.046 86.3713 85.703 85.0412 84.386 83.7377 83.0963 82.4621 81.8352 81.2158 80.604 79.9812 79.3095 78.6448 77.9872 77.3369 76.6942 76.0592 75.4321 74.8131 74.2024 73.6003 73.0069 72.4224 71.8471 71.2811 70.7248 70.1783 69.6348 69.029 68.4105 67.8012 67.2012 66.6108 66.0303 65.4599 64.8999 64.3506 63.8122 63.2456 62.6817 62.1289 61.5873 61.0328 60.4649 59.9083 59.3633 58.8303 58.3095 57.8014 57.3062 56.8243 56.356 55.9017 55.4617 55.0091 54.5619 54.0833 53.535 53 52.4786 51.9711 51.4781 51 50.5371 50.0899 49.6488 49.1935 48.7545 48.3011 47.8539 47.4131 46.9574 46.5188 46.0977 45.6946 45.31 44.9444 44.5982 44.2719 43.8292 43.382 42.9418 42.4853 42.0476 41.6293 41.2311 40.8534 40.4969 40.1622 39.8497 39.5601 39.2173 38.8973 38.4838 38.0789 37.6962 37.3363 37 36.6879 36.4006 36.1386 35.9026 35.6931 35.4401 35.1141 34.7851 34.4819 34.176 33.8378 33.5261 33.2415 32.9848 32.7567 32.5576 32.28 32.0156 31.7805 31.5753 31.3209 31.0483 30.8058 30.5941 30.4138 30.2655 30.0832 29.8329 29.6142 29.4279 29.2746 29.1204 28.8617 28.6356 28.4429 28.2843 28.1603 28.0713 27.8927 27.6586 27.4591 27.2947 27.1662 27.074 27.0185 27 26.9258 26.6833 26.4764 26.3059 26.1725 26.0768 26.0192 26 26 26 26 26 26 25.9615 25.7099 25.4951 25.318 25.1794 25.0799 25.02 25 25 25 25 25 25 25 25 25 25 25 25 25 25 25 25 25 25 25 25 25 25 25 25 25 25.02 25.0799 25.1794 25.318 25.4951 25.7099 25.9615 26 26 26 26 26 26 26 26.0192 26.0768 26.1725 26.3059 26.4764 26.6833 26.9258 27 27 27.0185 27.074 27.1662 27.2947 27.4591 27.6586 27.8927 28.0179 28.0713 28.1603 28.2843 28.4429 28.6356 28.8617 29.0172 29.0689 29.1548 29.2746 29.4279 29.6142 29.8329 30.0666 30.1496 30.2655 30.4138 30.5941 30.8058 31.0483 31.3209 31.5753 31.7805 32.0156 32.249 32.3883 32.5576 32.7567 32.9848 33.2415 33.3766 33.541 33.7343 33.9559 34.2053 34.4819 34.7131 34.9285 35.171 35.4401 35.6931 35.9026 36.1386 36.4006 36.6742 36.8782 37.108 37.3631 37.1214 36.2353 35.3412 34.4384 33.541 32.6497 31.7648 30.8707 29.9666 29.0689 28.178 27.2947 26.4008 25.4951 24.5967 23.7065 22.8254 21.9545 21.095 20.2485 19.4165 18.6011 17.8045 17 16.1245 15.2315 14.3178 13.4164 12.53 11.6619 10.7703 9.84886 8.94427 8.06226 7.2111 6.32456 5.38516 4.47214 3.60555 2.82843 2.23607 1.41421 1 0 1 1.41421 2.23607 3.16228 4.12311 5 5.83095 6.7082 7.61577 8.544 9.43398 10.2956 9.84886 8.94427 8.06226 7.2111 6.40312 5.65685 5 4.12311 3.16228 2.23607 1.41421 1 0 1 1.41421 2.23607 2.82843 3.60555 4.47214 5.38516 6.32456 7.2111 8.06226 8.94427 9.84886 10.6301 11.4018 12.2066 13.0384 13.8924 14.7648 15.6205 16.4012 17.2047 18.0278 18.868 19.7231 20.5913 21.4709 22.3607 23.2594 24.0832 24.8395 25.6125 26.4008 27.2029 28.0179 28.8444 29.6816 30.5287 31.3847 32.2025 33.0151 33.8378 34.6699 35.5106 36.3593 37.2022 38.0132 38.833 39.6611 40.4969 41.3401 42.19 43.0116 43.8292 44.6542 45.4533 46.2277 47.0106 47.8017 48.6004 49.4065 50.2195 51.0392 51.8556 52.6308 53.4135 54.2033 55 54 53 52 51 50 49 48 47 46 45 44 43 42 41 40 39 38 37 36 35 34 33 32 31 30 29 28 27 26 25 24 23 22 21 20 19 18 17
58 59 60 61 62 63 64 65 66 67 68 69 70 71 72 73 74 75 76 77 78 79 80 81 82 83 84 85 86 87 88 89 90 91 92 93 94 95 96 97 98 99 100 101 102 103 104 105 106 107 108 109 110 111 112 113 113.864 113.146 112.432 111.723 111.018 110.309 109.604 108.894 108.19 107.48 106.775 106.066 105.361 104.652 103.947 103.238 102.533 101.823 101.119 100.409 99.7046 98.9949 98.2904 97.5807 96.8762 96.1665 95.462 94.7523 94.0479 93.3488 92.6337 91.9239 91.2195 90.5207 89.8276 89.1403 88.459 87.7838 87.1149 86.4523 85.7963 85.1469 84.5044 83.8689 83.2406 82.6196 82.0061 81.3941 80.7217 80.0562 79.3977 78.7464 78.1025 77.4661 76.8375 76.2168 75.6042 75 74.4043 73.8173 73.2393 72.6705 72.111 71.5612 71.0211 70.4344 69.814 69.2026 68.6003 68.0074 67.424 66.8506 66.2873 65.7343 65.192 64.6375 64.0703 63.5138 62.9682 62.426 61.8547 61.2944 60.7454 60.208 59.6825 59.1693 58.6686 58.1808 57.7062 57.2451 56.7979 56.356 55.9017 55.4617 54.9181 54.3783 53.8516 53.3385 52.8394 52.3546 51.8845 51.4296 50.9902 50.5371 50.0899 49.6488 49.1935 48.7545 48.3011 47.8539 47.4236 47.0106 46.6154 46.2385 45.8803 45.5412 45.1774 44.7214 44.2832 43.8292 43.382 42.9535 42.5441 42.1545 41.7852 41.4367 41.1096 40.8044 40.4969 40.1622 39.8121 39.3954 39 38.6264 38.2753 37.9473 37.6431 37.3631 37.108 36.8782 36.6742 36.4006 36.0555 35.7351 35.4401 35.1141 34.7851 34.4819 34.2053 33.9559 33.7343 33.5261 33.2415 32.9848 32.7567 32.5576 32.28 32.0156 31.7805 31.5753 31.4006 31.257 31.0483 30.8058 30.5941 30.4138 30.2655 30.0832 29.8329 29.6142 29.4279 29.2746 29.1548 29.0689 28.8617 28.6356 28.4429 28.2843 28.1603 28.0713 28.0179 28 27.8927 27.6586 27.4591 27.2947 27.1662 27.074 27.0185 27 27 27 27 27 27 26.9258 26.6833 26.4764 26.3059 26.1725 26.0768 26.0192 26 26 26 26 26 26 26 26 26 26 26 26 26 26 26 26 26 26 26 26 26 26 26 26 26 26.0192 26.0768 26.1725 26.3059 26.4764 26.6833 26.9258 27 27 27 27 27 27 27 27.0185 27.074 27.1662 27.2947 27.4591 27.6586 27.8927 28 28 28.0179 28.0713 28.1603 28.2843 28.4429 28.6356 28.8617 29.0172 29.0689 29.1548 29.2746 29.4279 29.6142 29.8329 30.0167 30.0666 30.1496 30.2655 30.4138 30.5941 30.8058 31.0483 31.1448 31.257 31.4006 31.5753 31.7805 32.0156 32.28 32.5576 32.7567 32.9848 33.2415 33.3766 33.541 33.7343 33.9559 34.2053 34.3657 34.5254 34.7131 34.9285 35.171 35.4401 35.6931 35.9026 36.1386 36.4006 36.6742 36.8782 37.108 37.3631 37.6431 37.855 38.0789 38.3275 37.5766 36.6742 35.7771 34.8855 34 33.1059 32.2025 31.305 30.4138 29.5296 28.6356 27.7308 26.8328 25.9422 25.0599 24.1868 23.3238 22.4722 21.6333 20.8087 20 19.2094 18.3576 17.4642 16.5529 15.6525 14.7648 13.8924 13 12.083 11.1803 10.2956 9.43398 8.544 7.61577 6.7082 5.83095 5 4.24264 3.60555 2.82843 2 1 0 0 1 2 2.82843 3.60555 4.47214 5.38516 6.32456 7.2111 8.06226 8.94427 9.84886 10.2956 9.43398 8.60233 7.81025 7.07107 6.32456 5.38516 4.47214 3.60555 2.82843 2 1 0 0 1 1.41421 2.23607 3.16228 4.12311 5 5.83095 6.7082 7.61577 8.48528 9.21954 10 10.8167 11.6619 12.53 13.4164 14.2127 15 15.8114 16.6433 17.4929 18.3576 19.2354 20.1246 21.0238 21.9317 22.6716 23.4307 24.2074 25 25.807 26.6271 27.4591 28.3019 29.1548 30 30.8058 31.6228 32.45 33.2866 34.1321 34.9857 35.805 36.6197 37.4433 38.2753 39.1152 39.9625 40.8044 41.6173 42.4382 43.2666 44.0454 44.8219 45.607 46.4004 47.2017 48.0104 48.8262 49.6488 50.448 51.225 52.0096 52.8015 53.6004 54.4059 54 53 52 51 50 49 48 47 46 45 44 43 42 41 40 39 38 37 36 35 34 33 32 31 30 29 28 27 26 25 24 23 22 21 20 19 18 17
58 59 60 61 62 63 64 65 66 67 68 69 70 71 72 73 74 75 76 77 78 79 80 81 82 83 84 85 86 87 88 89 90 91 92 93 94 95 96 97 98 99 100 101 102 103 104 105 106 107 108 109 110 111 112 113 114 113.846 113.137 112.432 111.723 111.018 110.309 109.604 108.894 108.19 107.48 106.775 106.066 105.361 104.652 103.947 103.238 102.533 101.823 101.119 100.409 99.7046 98.9949 98.2904 97.5807 96.8762 96.1665 95.462 94.7629 94.0479 93.3381 92.6337 91.9348 91.2414 90.5538 89.8721 89.1964 88.5268 87.8635 87.2066 86.5563 85.9128 85.276 84.6463 84.0238 83.4086 82.801 82.134 81.4678 80.8084 80.1561 79.511 78.8733 78.2432 77.6209 77.0065 76.4003 75.8024 75.213 74.6324 74.0608 73.4983 72.9452 72.4017 71.8401 71.218 70.6045 70 69.4046 68.8186 68.2422 67.6757 67.1193 66.5733 66.0303 65.4599 64.8999 64.3506 63.8122 63.2456 62.6817 62.1289 61.5873 61.0574 60.5392 60.0333 59.5399 59.0593 58.5918 58.1378 57.6975 57.2451 56.7979 56.3028 55.7584 55.2268 54.7083 54.2033 53.7122 53.2353 52.7731 52.3259 51.8845 51.4296 50.9902 50.5371 50.0899 49.6488 49.1935 48.7545 48.3322 47.927 47.5395 47.1699 46.8188 46.4866 46.0652 45.618 45.1774 44.7214 44.2832 43.8634 43.4626 43.0813 42.72 42.3792 42.0595 41.7612 41.4367 41.1096 40.7185 40.3113 39.9249 39.5601 39.2173 38.8973 38.6005 38.3275 38.0789 37.855 37.6431 37.3363 37 36.6879 36.4006 36.0555 35.7351 35.4401 35.171 34.9285 34.7131 34.4819 34.2053 33.9559 33.7343 33.5261 33.2415 32.9848 32.7567 32.5576 32.3883 32.249 32.0156 31.7805 31.5753 31.4006 31.257 31.0483 30.8058 30.5941 30.4138 30.2655 30.1496 30.0666 29.8329 29.6142 29.4279 29.2746 29.1548 29.0689 29.0172 29 28.8617 28.6356 28.4429 28.2843 28.1603 28.0713 28.0179 28 28 28 28 28 28 27.8927 27.6586 27.4591 27.2947 27.1662 27.074 27.0185 27 27 27 27 27 27 27 27 27 27 27 27 27 27 27 27 27 27 27 27 27 27 27 27 27 27.0185 27.074 27.1662 27.2947 27.4591 27.6586 27.8927 28 28 28 28 28 28 28 28.0179 28.0713 28.1603 28.2843 28.4429 28.6356 28.8617 29 29 29.0172 29.0689 29.1548 29.2746 29.4279 29.6142 29.8329 30.0167 30.0666 30.1496 30.2655 30.4138 30.5941 30.8058 31.0161 31.0644 31.1448 31.257 31.4006 31.5753 31.7805 32.0156 32.1403 32.249 32.3883 32.5576 32.7567 32.9848 33.2415 33.5261 33.7343 33.9559 34.2053 34.3657 34.5254 34.7131 34.9285 35.171 35.3553 35.5106 35.6931 35.9026 36.1386 36.4006 36.6742 36.8782 37.108 37.3631 37.6431 37.855 38.0789 38.3275 38.6005 38.833 39.0512 38.9102 38.0132 37.1214 36.2353 35.3412 34.4384 33.541 32.6497 31.7648 30.8707 29.9666 29.0689 28.178 27.2947 26.4197 25.5539 24.6982 23.8537 23.0217 22.2036 21.4009 20.5913 19.6977 18.7883 17.8885 17 16.1245 15.2315 14.3178 13.4164 12.53 11.6619 10.7703 9.84886 8.94427 8.06226 7.2111 6.40312 5.65685 5 4.12311 3.16228 2.23607 1.41421 1 0 1 1.41421 2.23607 3.16228 4.12311 5 5.83095 6.7082 7.61577 8.544 9.43398 10.2956 10 9.21954 8.48528 7.61577 6.7082 5.83095 5 4.12311 3.16228 2.23607 1.41421 1 0 0 1 2 2.82843 3.60555 4.47214 5.38516 6.32456 7.07107 7.81025 8.60233 9.43398 10.2956 11.1803 12.0416 12.8062 13.6015 14.4222 15.2643 16.1245 17 17.8885 18.7883 19.6977 20.5183 21.2603 22.0227 22.8035 23.6008 24.4131 25.2389 26.0768 26.9258 27.7849 28.6007 29.4109 30.2324 31.0644 31.9061 32.7567 33.6006 34.4093 35.2278 36.0555 36.8917 37.7359 38.5876 39.4081 40.2244 41.0488 41.8688 42.638 43.4166 44.2041 45 45.8039 46.6154 47.4342 48.2597 49.0408 49.8197 50.6063 51.4004 52.2015 53.0094 53.8145 54 53 52 51 50 49 48 47 46 45 44 43 42 41 40 39 38 37 36 35 34 33 32 31 30 29 28 27 26 25 24 23 22 21 20 19 18 17
58 59 60 61 62 63 64 65 66 67 68 69 70 71 72 73 74 75 76 77 78 79 80 81 82 83 84 85 86 87 88 89 90 91 92 93 94 95 96 97 98 99 100 101 102 103 104 105 106 107 108 109 110 111 112 113 114 114.551 113.846 113.137 112.432 111.723 111.018 110.309 109.604 108.894 108.19 107.48 106.775 106.066 105.361 104.652 103.947 103.238 102.533 101.823 101.119 100.409 99.7046 98.9949 98.2904 97.5807 96.8762 96.1769 95.462 94.7523 94.0479 93.3488 92.6553 91.9674 91.2853 90.609 89.9389 89.2749 88.6172 87.9659 87.3212 86.6833 86.0523 85.4283 84.8116 84.2021 83.5464 82.8794 82.2192 81.5659 80.9197 80.2808 79.6492 79.0253 78.4092 77.801 77.201 76.6094 76.0263 75.452 74.8866 74.3303 73.7835 73.2393 72.6223 72.0069 71.4003 70.8025 70.214 69.6348 69.0652 68.5055 67.9559 67.4166 66.8506 66.2873 65.7343 65.192 64.6375 64.0703 63.5138 62.9682 62.434 61.9112 61.4003 60.9016 60.4152 59.9416 59.4811 59.0339 58.5918 58.1378 57.6888 57.1402 56.6039 56.0803 55.5698 55.0727 54.5894 54.1202 53.6656 53.2259 52.7731 52.3259 51.8845 51.4296 50.9902 50.5371 50.0899 49.6588 49.2443 48.8467 48.4665 48.1041 47.7598 47.4131 46.9574 46.5188 46.0652 45.618 45.1885 44.7772 44.3847 44.0114 43.6578 43.3244 43.0116 42.72 42.3792 42.0476 41.6293 41.2311 40.8534 40.4969 40.1622 39.8497 39.5601 39.2938 39.0512 38.833 38.6005 38.2753 37.9473 37.6431 37.3363 37 36.6879 36.4006 36.1386 35.9026 35.6931 35.4401 35.171 34.9285 34.7131 34.4819 34.2053 33.9559 33.7343 33.541 33.3766 33.2415 32.9848 32.7567 32.5576 32.3883 32.249 32.0156 31.7805 31.5753 31.4006 31.257 31.1448 31.0483 30.8058 30.5941 30.4138 30.2655 30.1496 30.0666 30.0167 30 29.8329 29.6142 29.4279 29.2746 29.1548 29.0689 29.0172 29 29 29 29 29 29 28.8617 28.6356 28.4429 28.2843 28.1603 28.0713 28.0179 28 28 28 28 28 28 28 28 28 28 28 28 28 28 28 28 28 28 28 28 28 28 28 28 28 28.0179 28.0713 28.1603 28.2843 28.4429 28.6356 28.8617 29 29 29 29 29 29 29 29.0172 29.0689 29.1548 29.2746 29.4279 29.6142 29.8329 30 30 30.0167 30.0666 30.1496 30.2655 30.4138 30.5941 30.8058 31.0161 31.0644 31.1448 31.257 31.4006 31.5753 31.7805 32.0156 32.0624 32.1403 32.249 32.3883 32.5576 32.7567 32.9848 33.1361 33.2415 33.3766 33.541 33.7343 33.9559 34.2053 34.4819 34.7131 34.9285 35.171 35.3553 35.5106 35.6931 35.9026 36.1386 36.3456 36.4966 36.6742 36.8782 37.108 37.3631 37.6431 37.855 38.0789 38.3275 38.6005 38.833 39.0512 39.2938 39.5601 39.8121 40.025 39.3573 38.4708 37.5766 36.6742 35.7771 34.8855 34 33.1059 32.2025 31.305 30.4138 29.5296 28.6531 27.7849 26.9258 26.0768 25.2389 24.4131 23.6008 22.8035 21.9317 21.0238 20.1246 19.2354 18.3576 17.4642 16.5529 15.6525 14.7648 13.8924 13 12.083 11.1803 10.2956 9.43398 8.60233 7.81025 7.07107 6.32456 5.38516 4.47214 3.60555 2.82843 2 1 0 0 1 2 2.82843 3.60555 4.47214 5.38516 6.32456 7.2111 8.06226 8.94427 9.84886 10.6301 9.84886 8.94427 8.06226 7.2111 6.32456 5.38516 4.47214 3.60555 2.82843 2.23607 1.41421 1 0 1 1.41421 2.23607 3.16228 4.12311 5 5.65685 6.40312 7.2111 8.06226 8.94427 9.84886 10.6301 11.4018 12.2066 13.0384 13.8924 14.7648 15.6525 16.5529 17.4642 18.3576 19.105 19.8494 20.6155 21.4009 22.2036 23.0217 23.8537 24.6982 25.5539 26.4008 27.2029 28.0179 28.8444 29.6816 30.5287 31.3847 32.2025 33.0151 33.8378 34.6699 35.5106 36.3593 37.2022 38.0132 38.833 39.6611 40.4599 41.2311 42.0119 42.8019 43.6005 44.4072 45.2217 46.0435 46.8615 47.634 48.4149 49.2037 50 50.8035 51.614 52.4023 53.1507 53.9073 53 52 51 50 49 48 47 46 45 44 43 42 41 40 39 38 37 36 35 34 33 32 31 30 29 28 27 26 25 24 23 22 21 20 19 18 17
