35 36 37 38 39 40 41 42 43 44 45 46 47 48 49 50 51 52 53 54 55 56 57 58 59 60 61 62 63 64 65 66 67 68 69 70 71 72 73 74 75 76 77 78 79 80 81 82 83 84 85 86 87 88 89 90 91 92 93 93.0484 92.0489 91.0494 90.05 89.0505 88.0511 87.0517 86.0523 85.0529 84.0536 83.0542 82.0549 81.0555 80.0562 79.0569 78.0577 77.0584 76.0592 75.06 74.0608 73.0616 72.0625 71.0634 70.0643 69.0652 68.0661 67.0671 66.0681 65.0692 64.0703 63.0714 62.0725 61.0737 60.075 59.0762 58.0775 57.0789 56.0803 55.0818 54.0833 53.0848 52.0865 51.0882 50.0899 49.0918 48.0937 47.0956 46.0977 45.0999 44.1022 43.1045 42.107 41.1096 40.1123 39.1152 38.1182 37.1214 36.1248 35.1283 34.1321 33.1361 32.1403 31.1448 30.1496 29.1548 28.1603 27.1662 26.1725 25.1794 24.1868 23.1948 22.2036 21.2132 20.2237 19.2354 18.2483 17.2627 16.2788 15.2971 14.3178 13.3417 12.3693 11.4018 10.4403 9.48683 8.544 7.61577 6.7082 5.83095 5 4.24264 3.60555 3.16228 3 3 3.16228 3.60555 4.24264 5 5.65685 6.40312 7.07107 7.81025 8.48528 9.21954 10 10.8167 11.6619 12.53 13.4164 14.1421 14.8661 15.5563 16.2788 16.9706 17.6918 18.3848 19.105 19.799 20.5183 21.2603 22.0227 22.8035 23.6008 24.4131 25.2389 26.0768 26.8701 27.5862 28.2843 29 29.6985 30.4138 31.1127 31.8277 32.5576 33.3017 34.0588 34.8281 35.609 36.4006 37.2022 38.0132 38.833 39.598 40.3113 41.0366 41.7253 42.4264 43.1393 43.8634 44.5982 45.3431 46.0977 46.8615 47.634 48.4149 49.2037 48.7647 47.8853 47.0106 46.1411 45.2769 44.4185 43.566 42.72 41.8808 41.0488 40.2244 39.4081 38.6005 37.8021 37.0135 36.2353 35.4683 34.7131 33.9706 33.2415 32.45 31.6228 30.8058 30 29.2062 28.4253 27.6586 26.9072 26.0768 25.2389 24.4131 23.6008 22.8035 21.9545 21.095 20.2485 19.4165 18.6011 17.8045 17.0294 16.2788 15.5563 14.7648 13.8924 13.0384 12.2066 11.4018 10.6301 9.84886 8.94427 8.06226 7.2111 6.40312 5.65685 5 4.12311 3.16228 2.23607 1.41421 1 0 0 1 1.41421 2.23607 3.16228 4.12311 5 5.65685 6.40312 7.07107 7.07107 6.40312 5.65685 5 4.47214 4.12311 3.60555 2.82843 2.23607 1.41421 1 0 0 1 1.41421 2.23607 2.82843 3.60555 4.24264 5 4.24264 3.60555 2.82843 2 1 0 0 1 1.41421 2.23607 3.16228 4.12311 5 5.65685 6.40312 7.2111 8.06226 8.94427 9.84886 10.6301 11.4018 12.2066 13.0384 13.8924 14.7648 15.6205 16.4012 17.2047 18.0278 18.868 19.7231 20.5183 21.2603 22.0227 22.8035 23.6008 24.4131 25.2389 26.0768 26.9258 27.7849 28.6007 29.4109 30.2324 31.0644 31.8904 32.6497 33.4216 34.2053 35 35.805 36.6197 37.4433 38.2753 39.1152 39.9625 40.8044 41.6173 42.4382 43.2666 44 43 42 41 40 39 38 37 36 35 34 33 32 31 30 29 28 27 26 25 24 23 22 21 20 19 18 17 16 15 14 13 12 11 10 9 8 7 6 5 4 3 2 1 0 1 2 3 4 5 6 7 8 9 10 11 12 13 13.9284 14.8661 15.8114 16.7631 17.72 18.6815 19.6469 20.6155 21.587 22.561 23.5372 24.5153 25.4951 26.4764 27.4591 28.4429 29.4279 30.4138 31.4006 32.3883 33.3766 34.3657 35.3553 36.3456 37.3363 38.3275 39.3192 40.3113 41.3038 42.2966 43.2897 44.2832 45.2769 46.2709 47.2652 48.2597 49.2544 50.2494 51.2445 52.2398 53.2353 54.231 55.2268 56.2228 57.2189 58.2151 59.2115 60.208 61.2046 62.2013 63.1981 64.195 65.192 66.1891 67.1863 68.1836 69.1809 70.1783 71.1758 72.1734 73.171 74.1687 75.1665 76.1643 77.1622 78.1601 79.1581 80.1561 81 80 79 78 77 76 75 74 73 72 71 70 69 68 67 66 65 64 63 62 61 60 59 58 57 56 55 54 53 52 51 50 49 48 47 46 45 44 43 42 41 40 39 38 37 36 35 34 33 32 31 30 29 28 27 26 25 24 23 22 21 20 19 18 17 16 15 14 13 12 11 10
35 36 37 38 39 40 41 42 43 44 45 46 47 48 49 50 51 52 53 54 55 56 57 58 59 60 61 62 63 64 65 66 67 68 69 70 71 72 73 74 75 76 77 78 79 80 81 82 83 84 85 86 87 88 89 90 91 92 93 93.086 92.0869 91.0879 90.0888 89.0898 88.0909 87.0919 86.093 85.0941 84.0952 83.0963 82.0975 81.0987 80.0999 79.1012 78.1025 77.1038 76.1052 75.1066 74.108 73.1095 72.111 71.1126 70.1142 69.1158 68.1175 67.1193 66.1211 65.123 64.1249 63.1269 62.1289 61.131 60.1332 59.1354 58.1378 57.1402 56.1427 55.1453 54.1479 53.1507 52.1536 51.1566 50.1597 49.163 48.1664 47.1699 46.1736 45.1774 44.1814 43.1856 42.19 41.1947 40.1995 39.2046 38.2099 37.2156 36.2215 35.2278 34.2345 33.2415 32.249 31.257 30.2655 29.2746 28.2843 27.2947 26.3059 25.318 24.3311 23.3452 22.3607 21.3776 20.3961 19.4165 18.4391 17.4642 16.4924 15.5242 14.5602 13.6015 12.6491 11.7047 10.7703 9.84886 8.94427 8.06226 7.2111 6.40312 5.65685 5 4.47214 4.12311 4 4 4.12311 4.47214 5 5.65685 6.40312 7.07107 7.81025 8.48528 9.21954 9.8995 10.6301 11.4018 12.2066 13.0384 13.8924 14.7648 15.5563 16.2788 16.9706 17.6918 18.3848 19.105 19.799 20.5183 21.2132 21.9317 22.6716 23.4307 24.2074 25 25.807 26.6271 27.4591 28.2843 29 29.6985 30.4138 31.1127 31.8277 32.5269 33.2415 33.9706 34.7131 35.4683 36.2353 37.0135 37.8021 38.6005 39.4081 40.2244 41.0122 41.7253 42.45 43.1393 43.8406 44.5533 45.2769 46.0109 46.7547 47.5079 48.2701 49.0408 49.0408 48.2597 47.4131 46.5296 45.6508 44.7772 43.909 43.0465 42.19 41.3401 40.4969 39.6611 38.833 38.0132 37.2022 36.4006 35.609 34.8281 34.0588 33.3017 32.5576 31.8277 31.0644 30.2324 29.4109 28.6007 27.8029 27.0185 26.2488 25.4951 24.6982 23.8537 23.0217 22.2036 21.4009 20.5913 19.7231 18.868 18.0278 17.2047 16.4012 15.6205 14.8661 14.1421 13.4164 12.53 11.6619 10.8167 10 9.21954 8.48528 7.61577 6.7082 5.83095 5 4.24264 3.60555 2.82843 2 1 0 0 1 1.41421 2.23607 2.82843 3.60555 4.47214 5.38516 6.32456 7.07107 7.07107 6.40312 5.65685 5 4.24264 3.60555 3.16228 2.82843 2.23607 1.41421 1 0 0 1 1.41421 2.23607 2.82843 3.60555 4.24264 5 5.65685 5 4.12311 3.16228 2.23607 1.41421 1 0 0 1 2 2.82843 3.60555 4.24264 5 5.83095 6.7082 7.61577 8.48528 9.21954 10 10.8167 11.6619 12.53 13.4164 14.2127 15 15.8114 16.6433 17.4929 18.3576 19.105 19.8494 20.6155 21.4009 22.2036 23.0217 23.8537 24.6982 25.5539 26.4008 27.2029 28.0179 28.8444 29.6816 30.4795 31.241 32.0156 32.8024 33.6006 34.4093 35.2278 36.0555 36.8917 37.7359 38.5876 39.4081 40.2244 41.0488 41.8808 42.72 43.566 43 42 41 40 39 38 37 36 35 34 33 32 31 30 29 28 27 26 25 24 23 22 21 20 19 18 17 16 15 14 13 12 11 10 9 8 7 6 5 4 3 2 1 0 1 2 3 4 5 6 7 8 8.94427 9.84886 10.7703 11.7047 12.6491 13.6015 14.5602 15.5242 16.4924 17.4642 18.4391 19.4165 20.3961 21.3776 22.3607 23.3452 24.3311 25.318 26.3059 27.2947 28.2843 29.2746 30.2655 31.257 32.249 33.2415 34.2345 35.2278 36.2215 37.2156 38.2099 39.2046 40.1995 41.1947 42.19 43.1856 44.1814 45.1774 46.1736 47.1699 48.1664 49.163 50.1597 51.1566 52.1536 53.1507 54.1479 55.1453 56.1427 57.1402 58.1378 59.1354 60.1332 61.131 62.1289 63.1269 64.1249 65.123 66.1211 67.1193 68.1175 69.1158 70.1142 71.1126 72.111 73.1095 74.108 75.1066 76.1052 77.1038 78.1025 79.1012 80.0999 81 80 79 78 77 76 75 74 73 72 71 70 69 68 67 66 65 64 63 62 61 60 59 58 57 56 55 54 53 52 51 50 49 48 47 46 45 44 43 42 41 40 39 38 37 36 35 34 33 32 31 30 29 28 27 26 25 24 23 22 21 20 19 18 17 16 15 14 13 12 11 10
35 36 37 38 39 40 41 42 43 44 45 46 47 48 49 50 51 52 53 54 55 56 57 58 59 60 61 62 63 64 65 66 67 68 69 70 71 72 73 74 75 76 77 78 79 80 81 82 83 84 85 86 87 88 89 90 91 92 93 93.1343 92.1358 91.1373 90.1388 89.1403 88.1419 87.1436 86.1452 85.1469 84.1487 83.1505 82.1523 81.1542 80.1561 79.1581 78.1601 77.1622 76.1643 75.1665 74.1687 73.171 72.1734 71.1758 70.1783 69.1809 68.1836 67.1863 66.1891 65.192 64.195 63.1981 62.2013 61.2046 60.208 59.2115 58.2151 57.2189 56.2228 55.2268 54.231 53.2353 52.2398 51.2445 50.2494 49.2544 48.2597 47.2652 46.2709 45.2769 44.2832 43.2897 42.2966 41.3038 40.3113 39.3192 38.3275 37.3363 36.3456 35.3553 34.3657 33.3766 32.3883 31.4006 30.4138 29.4279 28.4429 27.4591 26.4764 25.4951 24.5153 23.5372 22.561 21.587 20.6155 19.6469 18.6815 17.72 16.7631 15.8114 14.8661 13.9284 13 12.083 11.1803 10.2956 9.43398 8.60233 7.81025 7.07107 6.40312 5.83095 5.38516 5.09902 5 5 5.09902 5.38516 5.83095 6.40312 7.07107 7.81025 8.48528 9.21954 9.8995 10.6301 11.3137 12.0416 12.8062 13.6015 14.4222 15.2643 16.1245 16.9706 17.6918 18.3848 19.105 19.799 20.5183 21.2132 21.9317 22.6274 23.3452 24.0832 24.8395 25.6125 26.4008 27.2029 28.0179 28.8444 29.6816 30.4138 31.1127 31.8277 32.5269 33.2415 33.9411 34.6554 35.3836 36.1248 36.8782 37.6431 38.4187 39.2046 40 40.8044 41.6173 42.4264 43.1393 43.8634 44.5533 45.2548 45.9674 46.6905 47.4236 48.1664 48.9183 49.2037 48.4149 47.634 46.8615 46.0435 45.1774 44.2945 43.4166 42.5441 41.6773 40.8167 39.9625 39.1152 38.2753 37.4433 36.6197 35.805 35 34.2053 33.4216 32.6497 31.8904 31.1448 30.4138 29.6816 28.8444 28.0179 27.2029 26.4008 25.6125 24.8395 24.0832 23.3238 22.4722 21.6333 20.8087 20 19.2094 18.3576 17.4929 16.6433 15.8114 15 14.2127 13.4536 12.7279 12.0416 11.1803 10.2956 9.43398 8.60233 7.81025 7.07107 6.32456 5.38516 4.47214 3.60555 2.82843 2.23607 1.41421 1 0 1 1.41421 2.23607 2.82843 3.60555 4.24264 5 5.83095 6.7082 7.07107 6.40312 5.65685 5 4.24264 3.60555 2.82843 2.23607 2 1.41421 1 0 0 1 1.41421 2.23607 2.82843 3.60555 4.24264 5 5.65685 6.32456 5.38516 4.47214 3.60555 2.82843 2.23607 1.41421 1 0 1 1.41421 2.23607 2.82843 3.60555 4.47214 5.38516 6.32456 7.07107 7.81025 8.60233 9.43398 10.2956 11.1803 12.0416 12.8062 13.6015 14.4222 15.2643 16.1245 16.9706 17.6918 18.4391 19.2094 20 20.8087 21.6333 22.4722 23.3238 24.1868 25 25.807 26.6271 27.4591 28.3019 29.0689 29.8329 30.6105 31.4006 32.2025 33.0151 33.8378 34.6699 35.5106 36.3593 37.2022 38.0132 38.833 39.6611 40.4969 41.3401 42.19 43.0116 43 42 41 40 39 38 37 36 35 34 33 32 31 30 29 28 27 26 25 24 23 22 21 20 19 18 17 16 15 14 13 12 11 10 9 8 7 6 5 4 3 2 1 0 1 2 3 4 5 5.83095 6.7082 7.61577 8.544 9.48683 10.4403 11.4018 12.3693 13.3417 14.3178 15.2971 16.2788 17.2627 18.2483 19.2354 20.2237 21.2132 22.2036 23.1948 24.1868 25.1794 26.1725 27.1662 28.1603 29.1548 30.1496 31.1448 32.1403 33.1361 34.1321 35.1283 36.1248 37.1214 38.1182 39.1152 40.1123 41.1096 42.107 43.1045 44.1022 45.0999 46.0977 47.0956 48.0937 49.0918 50.0899 51.0882 52.0865 53.0848 54.0833 55.0818 56.0803 57.0789 58.0775 59.0762 60.075 61.0737 62.0725 63.0714 64.0703 65.0692 66.0681 67.0671 68.0661 69.0652 70.0643 71.0634 72.0625 73.0616 74.0608 75.06 76.0592 77.0584 78.0577 79.0569 80.0562 81 80 79 78 77 76 75 74 73 72 71 70 69 68 67 66 65 64 63 62 61 60 59 58 57 56 55 54 53 52 51 50 49 48 47 46 45 44 43 42 41 40 39 38 37 36 35 34 33 32 31 30 29 28 27 26 25 24 23 22 21 20 19 18 17 16 15 14 13 12 11 10
35 36 37 38 39 40 41 42 43 44 45 46 47 48 49 50 51 52 53 54 55 56 57 58 59 60 61 62 63 64 65 66 67 68 69 70 71 72 73 74 75 76 77 78 79 80 81 82 83 84 85 86 87 88 89 90 91 92 93 93.1933 92.1954 91.1976 90.1998 89.202 88.2043 87.2066 86.209 85.2115 84.214 83.2166 82.2192 81.2219 80.2247 79.2275 78.2304 77.2334 76.2365 75.2396 74.2428 73.2462 72.2496 71.2531 70.2567 69.2604 68.2642 67.2681 66.2722 65.2763 64.2806 63.2851 62.2896 61.2944 60.2993 59.3043 58.3095 57.3149 56.3205 55.3263 54.3323 53.3385 52.345 51.3517 50.3587 49.366 48.3735 47.3814 46.3897 45.3982 44.4072 43.4166 42.4264 41.4367 40.4475 39.4588 38.4708 37.4833 36.4966 35.5106 34.5254 33.541 32.5576 31.5753 30.5941 29.6142 28.6356 27.6586 26.6833 25.7099 24.7386 23.7697 22.8035 21.8403 20.8806 19.9249 18.9737 18.0278 17.088 16.1555 15.2315 14.3178 13.4164 12.53 11.6619 10.8167 10 9.21954 8.48528 7.81025 7.2111 6.7082 6.32456 6.08276 6 6 6.08276 6.32456 6.7082 7.2111 7.81025 8.48528 9.21954 9.8995 10.6301 11.3137 12.0416 12.7279 13.4536 14.2127 15 15.8114 16.6433 17.4929 18.3576 19.105 19.799 20.5183 21.2132 21.9317 22.6274 23.3452 24.0416 24.7588 25.4951 26.2488 27.0185 27.8029 28.6007 29.4109 30.2324 31.0644 31.8277 32.5269 33.2415 33.9411 34.6554 35.3553 36.0694 36.7967 37.5366 38.2884 39.0512 39.8246 40.6079 41.4005 42.2019 43.0116 43.8292 44.5533 45.2769 45.9674 46.669 47.3814 48.1041 48.8365 49.4065 48.6004 47.8017 47.0106 46.2277 45.4533 44.6542 43.8292 42.9418 42.0595 41.1825 40.3113 39.4462 38.5876 37.7359 36.8917 36.0555 35.2278 34.4093 33.6006 32.8024 32.0156 31.241 30.4795 29.7321 29 28.2843 27.4591 26.6271 25.807 25 24.2074 23.4307 22.6716 21.9317 21.095 20.2485 19.4165 18.6011 17.8045 17 16.1245 15.2643 14.4222 13.6015 12.8062 12.0416 11.3137 10.6301 9.84886 8.94427 8.06226 7.2111 6.40312 5.65685 5 4.12311 3.16228 2.23607 1.41421 1 0 0 1 2 2.82843 3.60555 4.24264 5 5.65685 6.40312 7.07107 6.40312 5.65685 5 4.24264 3.60555 2.82843 2.23607 1.41421 1 1 0 0 1 1.41421 2.23607 2.82843 3.60555 4.24264 5 5.65685 6.40312 6.7082 5.83095 5 4.24264 3.60555 2.82843 2 1 0 0 1 1.41421 2.23607 3.16228 4.12311 5 5.65685 6.40312 7.2111 8.06226 8.94427 9.84886 10.6301 11.4018 12.2066 13.0384 13.8924 14.7648 15.5563 16.2788 17.0294 17.8045 18.6011 19.4165 20.2485 21.095 21.9545 22.8035 23.6008 24.4131 25.2389 26.0768 26.9072 27.6586 28.4253 29.2062 30 30.8058 31.6228 32.45 33.2866 34.1321 34.9857 35.805 36.6197 37.4433 38.2753 39.1152 39.9625 40.8044 41.6173 42.4382 43 42 41 40 39 38 37 36 35 34 33 32 31 30 29 28 27 26 25 24 23 22 21 20 19 18 17 16 15 14 13 12 11 10 9 8 7 6 5 4 3 2 1 0 1 2 2.82843 3.60555 4.47214 5.38516 6.32456 7.28011 8.24621 9.21954 10.198 11.1803 12.1655 13.1529 14.1421 15.1327 16.1245 17.1172 18.1108 19.105 20.0998 21.095 22.0907 23.0868 24.0832 25.0799 26.0768 27.074 28.0713 29.0689 30.0666 31.0644 32.0624 33.0606 34.0588 35.0571 36.0555 37.054 38.0526 39.0512 40.05 41.0488 42.0476 43.0465 44.0454 45.0444 46.0435 47.0425 48.0416 49.0408 50.04 51.0392 52.0384 53.0377 54.037 55.0364 56.0357 57.0351 58.0345 59.0339 60.0333 61.0328 62.0322 63.0317 64.0312 65.0308 66.0303 67.0298 68.0294 69.029 70.0286 71.0282 72.0278 73.0274 74.027 75.0267 76.0263 77.026 78.0256 79.0253 80.025 81 80 79 78 77 76 75 74 73 72 71 70 69 68 67 66 65 64 63 62 61 60 59 58 57 56 55 54 53 52 51 50 49 48 47 46 45 44 43 42 41 40 39 38 37 36 35 34 33 32 31 30 29 28 27 26 25 24 23 22 21 20 19 18 17 16 15 14 13 12 11 10
35 36 37 38 39 40 41 42 43 44 45 46 47 48 49 50 51 52 53 54 55 56 57 58 59 60 61 62 63 64 65 66 67 68 69 70 71 72 73 74 75 76 77 78 79 80 81 82 83 84 85 86 87 88 89 90 91 92 93 93.2631 92.2659 91.2688 90.2718 89.2749 88.278 87.2812 86.2844 85.2878 84.2912 83.2947 82.2982 81.3019 80.3057 79.3095 78.3135 77.3175 76.3217 75.326 74.3303 73.3348 72.3395 71.3442 70.3491 69.3542 68.3593 67.3647 66.3702 65.3758 64.3817 63.3877 62.3939 61.4003 60.407 59.4138 58.4209 57.4282 56.4358 55.4437 54.4518 53.4603 52.469 51.4781 50.4876 49.4975 48.5077 47.5184 46.5296 45.5412 44.5533 43.566 42.5793 41.5933 40.6079 39.6232 38.6394 37.6563 36.6742 35.6931 34.7131 33.7343 32.7567 31.7805 30.8058 29.8329 28.8617 27.8927 26.9258 25.9615 25 24.0416 23.0868 22.1359 21.1896 20.2485 19.3132 18.3848 17.4642 16.5529 15.6525 14.7648 13.8924 13.0384 12.2066 11.4018 10.6301 9.8995 9.21954 8.60233 8.06226 7.61577 7.28011 7.07107 7 7 7.07107 7.28011 7.61577 8.06226 8.60233 9.21954 9.8995 10.6301 11.3137 12.0416 12.7279 13.4536 14.1421 14.8661 15.6205 16.4012 17.2047 18.0278 18.868 19.7231 20.5183 21.2132 21.9317 22.6274 23.3452 24.0416 24.7588 25.4558 26.1725 26.9072 27.6586 28.4253 29.2062 30 30.8058 31.6228 32.45 33.2415 33.9411 34.6554 35.3553 36.0694 36.7696 37.4833 38.2099 38.9487 39.6989 40.4599 41.2311 42.0119 42.8019 43.6005 44.4072 45.2217 45.9674 46.6905 47.3814 48.0833 48.7955 49.5177 48.8262 48.0104 47.2017 46.4004 45.607 44.8219 44.0454 43.2666 42.4382 41.5933 40.7063 39.8246 38.9487 38.0789 37.2156 36.3593 35.5106 34.6699 33.8378 33.0151 32.2025 31.4006 30.6105 29.8329 29.0689 28.3196 27.5862 26.8701 26.0768 25.2389 24.4131 23.6008 22.8035 22.0227 21.2603 20.5183 19.7231 18.868 18.0278 17.2047 16.4012 15.6205 14.7648 13.8924 13.0384 12.2066 11.4018 10.6301 9.8995 9.21954 8.48528 7.61577 6.7082 5.83095 5 4.24264 3.60555 2.82843 2 1 0 0 1 1.41421 2.23607 3.16228 4.12311 5 5.65685 6.40312 7.07107 6.40312 5.65685 5 4.24264 3.60555 2.82843 2.23607 1.41421 1 0 0 0 1 1.41421 2.23607 2.82843 3.60555 4.24264 5 5.65685 6.40312 7.07107 7.2111 6.40312 5.65685 5 4.12311 3.16228 2.23607 1.41421 1 0 0 1 2 2.82843 3.60555 4.24264 5 5.83095 6.7082 7.61577 8.48528 9.21954 10 10.8167 11.6619 12.53 13.4164 14.1421 14.8661 15.6205 16.4012 17.2047 18.0278 18.868 19.7231 20.5913 21.4009 22.2036 23.0217 23.8537 24.6982 25.4951 26.2488 27.0185 27.8029 28.6007 29.4109 30.2324 31.0644 31.9061 32.7567 33.6006 34.4093 35.2278 36.0555 36.8917 37.7359 38.5876 39.4081 40.2244 41.0488 41.8688 42.638 42 41 40 39 38 37 36 35 34 33 32 31 30 29 28 27 26 25 24 23 22 21 20 19 18 17 16 15 14 13 12 11 10 9 8 7 6 5 4 3 2 1 0 1 1.41421 2.23607 3.16228 4.12311 5.09902 6.08276 7.07107 8.06226 9.05539 10.0499 11.0454 12.0416 13.0384 14.0357 15.0333 16.0312 17.0294 18.0278 19.0263 20.025 21.0238 22.0227 23.0217 24.0208 25.02 26.0192 27.0185 28.0179 29.0172 30.0167 31.0161 32.0156 33.0151 34.0147 35.0143 36.0139 37.0135 38.0132 39.0128 40.0125 41.0122 42.0119 43.0116 44.0114 45.0111 46.0109 47.0106 48.0104 49.0102 50.01 51.0098 52.0096 53.0094 54.0093 55.0091 56.0089 57.0088 58.0086 59.0085 60.0083 61.0082 62.0081 63.0079 64.0078 65.0077 66.0076 67.0075 68.0074 69.0072 70.0071 71.007 72.0069 73.0069 74.0068 75.0067 76.0066 77.0065 78.0064 79.0063 80.0062 81 80 79 78 77 76 75 74 73 72 71 70 69 68 67 66 65 64 63 62 61 60 59 58 57 56 55 54 53 52 51 50 49 48 47 46 45 44 43 42 41 40 39 38 37 36 35 34 33 32 31 30 29 28 27 26 25 24 23 22 21 20 19 18 17 16 15 14 13 12 11 10
35 36 37 38 39 40 41 42 43 44 45 46 47 48 49 50 51 52 53 54 55 56 57 58 59 60 61 62 63 64 65 66 67 68 69 70 71 72 73 74 75 76 77 78 79 80 81 82 83 84 85 86 87 88 89 90 91 92 93 93.3435 92.3472 91.351 90.3549 89.3588 88.3629 87.367 86.3713 85.3756 84.3801 83.3847 82.3893 81.3941 80.399 79.404 78.4092 77.4145 76.4199 75.4255 74.4312 73.437 72.4431 71.4493 70.4557 69.4622 68.469 67.4759 66.4831 65.4905 64.4981 63.5059 62.514 61.5224 60.531 59.5399 58.5491 57.5587 56.5685 55.5788 54.5894 53.6004 52.6118 51.6236 50.636 49.6488 48.6621 47.676 46.6905 45.7056 44.7214 43.7379 42.7551 41.7732 40.7922 39.8121 38.833 37.855 36.8782 35.9026 34.9285 33.9559 32.9848 32.0156 31.0483 30.0832 29.1204 28.1603 27.2029 26.2488 25.2982 24.3516 23.4094 22.4722 21.5407 20.6155 19.6977 18.7883 17.8885 17 16.1245 15.2643 14.4222 13.6015 12.8062 12.0416 11.3137 10.6301 10 9.43398 8.94427 8.544 8.24621 8.06226 8 8 8.06226 8.24621 8.544 8.94427 9.43398 10 10.6301 11.3137 12.0416 12.7279 13.4536 14.1421 14.8661 15.5563 16.2788 17.0294 17.8045 18.6011 19.4165 20.2485 21.095 21.9317 22.6274 23.3452 24.0416 24.7588 25.4558 26.1725 26.8701 27.5862 28.3196 29.0689 29.8329 30.6105 31.4006 32.2025 33.0151 33.8378 34.6554 35.3553 36.0694 36.7696 37.4833 38.1838 38.8973 39.6232 40.3609 41.1096 41.8688 42.638 43.4166 44.2041 45 45.8039 46.6154 47.3814 48.1041 48.7955 49.4975 49.0918 48.2597 47.4342 46.6154 45.8039 45 44.2041 43.4166 42.638 41.8688 41.0488 40.2244 39.3573 38.4708 37.5899 36.7151 35.8469 34.9857 34.1321 33.2866 32.45 31.6228 30.8058 30 29.2062 28.4253 27.6586 26.9072 26.1725 25.4558 24.6982 23.8537 23.0217 22.2036 21.4009 20.6155 19.8494 19.105 18.3576 17.4929 16.6433 15.8114 15 14.2127 13.4164 12.53 11.6619 10.8167 10 9.21954 8.48528 7.81025 7.07107 6.32456 5.38516 4.47214 3.60555 2.82843 2.23607 1.41421 1 0 0 1 2 2.82843 3.60555 4.47214 5.38516 6.32456 7.07107 6.40312 5.65685 5 4.24264 3.60555 2.82843 2.23607 1.41421 1 0 0 0 1 1.41421 2.23607 2.82843 3.60555 4.24264 5 5.65685 6.40312 7.07107 7.81025 7.81025 7.07107 6.32456 5.38516 4.47214 3.60555 2.82843 2.23607 1.41421 1 0 1 1.41421 2.23607 2.82843 3.60555 4.47214 5.38516 6.32456 7.07107 7.81025 8.60233 9.43398 10.2956 11.1803 12.0416 12.7279 13.4536 14.2127 15 15.8114 16.6433 17.4929 18.3576 19.2094 20 20.8087 21.6333 22.4722 23.3238 24.0832 24.8395 25.6125 26.4008 27.2029 28.0179 28.8444 29.6816 30.5287 31.3847 32.2025 33.0151 33.8378 34.6699 35.5106 36.3593 37.2022 38.0132 38.833 39.6611 40.4599 41.2311 42.0119 42 41 40 39 38 37 36 35 34 33 32 31 30 29 28 27 26 25 24 23 22 21 20 19 18 17 16 15 14 13 12 11 10 9 8 7 6 5 4 3 2 1 0 0 1 2 3 4 5 6 7 8 9 10 11 12 13 14 15 16 17 18 19 20 21 22 23 24 25 26 27 28 29 30 31 32 33 34 35 36 37 38 39 40 41 42 43 44 45 46 47 48 49 50 51 52 53 54 55 56 57 58 59 60 61 62 63 64 65 66 67 68 69 70 71 72 73 74 75 76 77 78 79 80 81 80 79 78 77 76 75 74 73 72 71 70 69 68 67 66 65 64 63 62 61 60 59 58 57 56 55 54 53 52 51 50 49 48 47 46 45 44 43 42 41 40 39 38 37 36 35 34 33 32 31 30 29 28 27 26 25 24 23 22 21 20 19 18 17 16 15 14 13 12 11 10
35 36 37 38 39 40 41 42 43 44 45 46 47 48 49 50 51 52 53 54 55 56 57 58 59 60 61 62 63 64 65 66 67 68 69 70 71 72 73 74 75 76 77 78 79 80 81 82 83 84 85 86 87 88 89 90 91 92 93 93.4345 92.4392 91.444 90.4489 89.4539 88.459 87.4643 86.4697 85.4751 84.4808 83.4865 82.4924 81.4985 80.5047 79.511 78.5175 77.5242 76.531 75.5381 74.5453 73.5527 72.5603 71.5681 70.5762 69.5845 68.593 67.6018 66.6108 65.6201 64.6297 63.6396 62.6498 61.6604 60.6712 59.6825 58.6941 57.7062 56.7186 55.7315 54.7449 53.7587 52.7731 51.788 50.8035 49.8197 48.8365 47.8539 46.8722 45.8912 44.911 43.9318 42.9535 41.9762 41 40.025 39.0512 38.0789 37.108 36.1386 35.171 34.2053 33.2415 32.28 31.3209 30.3645 29.4109 28.4605 27.5136 26.5707 25.632 24.6982 23.7697 22.8473 21.9317 21.0238 20.1246 19.2354 18.3576 17.4929 16.6433 15.8114 15 14.2127 13.4536 12.7279 12.0416 11.4018 10.8167 10.2956 9.84886 9.48683 9.21954 9.05539 9 9 9.05539 9.21954 9.48683 9.84886 10.2956 10.8167 11.4018 12.0416 12.7279 13.4536 14.1421 14.8661 15.5563 16.2788 16.9706 17.6918 18.4391 19.2094 20 20.8087 21.6333 22.4722 23.3238 24.0416 24.7588 25.4558 26.1725 26.8701 27.5862 28.2843 29 29.7321 30.4795 31.241 32.0156 32.8024 33.6006 34.4093 35.2278 36.0555 36.7696 37.4833 38.1838 38.8973 39.598 40.3113 41.0366 41.7732 42.5206 43.2782 44.0454 44.8219 45.607 46.4004 47.2017 48.0104 48.7955 49.5177 49.3964 48.5489 47.7074 46.8722 46.0435 45.2217 44.4072 43.6005 42.8019 42.0119 41.2311 40.4599 39.6611 38.833 38.0132 37.1214 36.2353 35.3553 34.4819 33.6155 32.7567 31.9061 31.0644 30.2324 29.4109 28.6007 27.8029 27.0185 26.2488 25.4951 24.7588 24.0416 23.3238 22.4722 21.6333 20.8087 20 19.2094 18.4391 17.6918 16.9706 16.1245 15.2643 14.4222 13.6015 12.8062 12.0416 11.1803 10.2956 9.43398 8.60233 7.81025 7.07107 6.40312 5.65685 5 4.12311 3.16228 2.23607 1.41421 1 0 0 1 1.41421 2.23607 3.16228 4.12311 5 5.83095 6.7082 6.32456 5.65685 5 4.24264 3.60555 2.82843 2.23607 1.41421 1 0 0 1 1 1.41421 2.23607 2.82843 3.60555 4.24264 5 5.65685 6.40312 7.07107 7.81025 8.48528 8.48528 7.61577 6.7082 5.83095 5 4.24264 3.60555 2.82843 2 1 0 0 1 1.41421 2.23607 3.16228 4.12311 5 5.65685 6.40312 7.2111 8.06226 8.94427 9.84886 10.6301 11.3137 12.0416 12.8062 13.6015 14.4222 15.2643 16.1245 17 17.8045 18.6011 19.4165 20.2485 21.095 21.9317 22.6716 23.4307 24.2074 25 25.807 26.6271 27.4591 28.3019 29.1548 30 30.8058 31.6228 32.45 33.2866 34.1321 34.9857 35.805 36.6197 37.4433 38.2753 39.0512 39.8246 40.6079 41.4005 42.0119 41.0122 40.0125 39.0128 38.0132 37.0135 36.0139 35.0143 34.0147 33.0151 32.0156 31.0161 30.0167 29.0172 28.0179 27.0185 26.0192 25.02 24.0208 23.0217 22.0227 21.0238 20.025 19.0263 18.0278 17.0294 16.0312 15.0333 14.0357 13.0384 12.0416 11.0454 10.0499 9.05539 8.06226 7.07107 6.08276 5.09902 4.12311 3.16228 2.23607 1.41421 1 0 1 2 3 4 5 6 7 8 9 10 11 12 13 14 15 16 17 18 19 20 21 22 23 24 25 26 27 28 29 30 31 32 33 34 35 36 37 38 39 40 41 42 43 44 45 46 47 48 49 50 51 52 53 54 55 56 57 58 59 60 61 62 63 64 65 66 67 68 69 70 71 72 73 74 75 76 77 78 79 80 81 80 79 78 77 76 75 74 73 72 71 70 69 68 67 66 65 64 63 62 61 60 59 58 57 56 55 54 53 52 51 50 49 48 47 46 45 44 43 42 41 40 39 38 37 36 35 34 33 32 31 30 29 28 27 26 25 24 23 22 21 20 19 18 17 16 15 14 13 12 11 10
35 36 37 38 39 40 41 42 43 44 45 46 47 48 49 50 51 52 53 54 55 56 57 58 59 60 61 62 63 64 65 66 67 68 69 70 71 72 73 74 75 76 77 78 79 80 81 82 83 84 85 86 87 88 89 90 91 92 93 93.5361 92.5419 91.5478 90.5538 89.56 88.5664 87.5728 86.5794 85.5862 84.5931 83.6002 82.6075 81.615 80.6226 79.6304 78.6384 77.6466 76.6551 75.6637 74.6726 73.6817 72.6911 71.7008 70.7107 69.7209 68.7314 67.7422 66.7533 65.7647 64.7765 63.7887 62.8013 61.8142 60.8276 59.8415 58.8558 57.8705 56.8858 55.9017 54.9181 53.9351 52.9528 51.9711 50.9902 50.01 49.0306 48.0521 47.0744 46.0977 45.1221 44.1475 43.1741 42.2019 41.2311 40.2616 39.2938 38.3275 37.3631 36.4006 35.4401 34.4819 33.5261 32.573 31.6228 30.6757 29.7321 28.7924 27.8568 26.9258 26 25.0799 24.1661 23.2594 22.3607 21.4709 20.5913 19.7231 18.868 18.0278 17.2047 16.4012 15.6205 14.8661 14.1421 13.4536 12.8062 12.2066 11.6619 11.1803 10.7703 10.4403 10.198 10.0499 10 10 10.0499 10.198 10.4403 10.7703 11.1803 11.6619 12.2066 12.8062 13.4536 14.1421 14.8661 15.5563 16.2788 16.9706 17.6918 18.3848 19.105 19.8494 20.6155 21.4009 22.2036 23.0217 23.8537 24.6982 25.4558 26.1725 26.8701 27.5862 28.2843 29 29.6985 30.4138 31.1448 31.8904 32.6497 33.4216 34.2053 35 35.805 36.6197 37.4433 38.1838 38.8973 39.598 40.3113 41.0122 41.7253 42.45 43.1856 43.9318 44.6878 45.4533 46.2277 47.0106 47.8017 48.6004 49.4065 49.6488 48.8262 48.0104 47.1699 46.3249 45.4863 44.6542 43.8292 43.0116 42.2019 41.4005 40.6079 39.8246 39.0512 38.2753 37.4433 36.6197 35.7771 34.8855 34 33.121 32.249 31.3847 30.5287 29.6816 28.8444 28.0179 27.2029 26.4008 25.6125 24.8395 24.0832 23.3452 22.6274 21.9317 21.095 20.2485 19.4165 18.6011 17.8045 17.0294 16.2788 15.5563 14.7648 13.8924 13.0384 12.2066 11.4018 10.6301 9.84886 8.94427 8.06226 7.2111 6.40312 5.65685 5 4.24264 3.60555 2.82843 2 1 0 0 1 1.41421 2.23607 2.82843 3.60555 4.47214 5.38516 6.32456 5.83095 5.38516 5 4.24264 3.60555 2.82843 2.23607 1.41421 1 0 0 1 1.41421 2 2.23607 2.82843 3.60555 4.24264 5 5.65685 6.40312 7.07107 7.81025 8.48528 9.21954 8.94427 8.06226 7.2111 6.40312 5.65685 5 4.12311 3.16228 2.23607 1.41421 1 0 0 1 2 2.82843 3.60555 4.24264 5 5.83095 6.7082 7.61577 8.48528 9.21954 9.8995 10.6301 11.4018 12.2066 13.0384 13.8924 14.7648 15.6205 16.4012 17.2047 18.0278 18.868 19.7231 20.5183 21.2603 22.0227 22.8035 23.6008 24.4131 25.2389 26.0768 26.9258 27.7849 28.6007 29.4109 30.2324 31.0644 31.9061 32.7567 33.6006 34.4093 35.2278 36.0555 36.8782 37.6431 38.4187 39.2046 40 40.8044 41.6173 41.0488 40.05 39.0512 38.0526 37.054 36.0555 35.0571 34.0588 33.0606 32.0624 31.0644 30.0666 29.0689 28.0713 27.074 26.0768 25.0799 24.0832 23.0868 22.0907 21.095 20.0998 19.105 18.1108 17.1172 16.1245 15.1327 14.1421 13.1529 12.1655 11.1803 10.198 9.21954 8.24621 7.28011 6.32456 5.38516 4.47214 3.60555 2.82843 2 1 0 1 2 3 4 5 6 7 8 9 10 11 12 13 14 15 16 17 18 19 20 21 22 23 24 25 26 27 28 29 30 31 32 33 34 35 36 37 38 39 40 41 42 43 44 45 46 47 48 49 50 51 52 53 54 55 56 57 58 59 60 61 62 63 64 65 66 67 68 69 70 71 72 73 74 75 76 77 78 79 80 81 80 79 78 77 76 75 74 73 72 71 70 69 68 67 66 65 64 63 62 61 60 59 58 57 56 55 54 53 52 51 50 49 48 47 46 45 44 43 42 41 40 39 38 37 36 35 34 33 32 31 30 29 28 27 26 25 24 23 22 21 20 19 18 17 16 15 14 13 12 11 10
35 36 37 38 39 40 41 42 43 44 45 46 47 48 49 50 51 52 53 54 55 56 57 58 59 60 61 62 63 64 65 66 67 68 69 70 71 72 73 74 75 76 77 78 79 80 81 82 83 84 85 86 87 88 89 90 91 92 93 93.6483 92.6553 91.6624 90.6697 89.6772 88.6848 87.6926 86.7006 85.7088 84.7172 83.7257 82.7345 81.7435 80.7527 79.7621 78.7718 77.7817 76.7919 75.8024 74.8131 73.8241 72.8354 71.8471 70.859 69.8713 68.884 67.897 66.9104 65.9242 64.9384 63.9531 62.9682 61.9839 61 60.0167 59.0339 58.0517 57.0701 56.0892 55.109 54.1295 53.1507 52.1728 51.1957 50.2195 49.2443 48.2701 47.2969 46.3249 45.3542 44.3847 43.4166 42.45 41.4849 40.5216 39.5601 38.6005 37.6431 36.6879 35.7351 34.7851 33.8378 32.8938 31.9531 31.0161 30.0832 29.1548 28.2312 27.313 26.4008 25.4951 24.5967 23.7065 22.8254 21.9545 21.095 20.2485 19.4165 18.6011 17.8045 17.0294 16.2788 15.5563 14.8661 14.2127 13.6015 13.0384 12.53 12.083 11.7047 11.4018 11.1803 11.0454 11 11 11.0454 11.1803 11.4018 11.7047 12.083 12.53 13.0384 13.6015 14.2127 14.8661 15.5563 16.2788 16.9706 17.6918 18.3848 19.105 19.799 20.5183 21.2603 22.0227 22.8035 23.6008 24.4131 25.2389 26.0768 26.8701 27.5862 28.2843 29 29.6985 30.4138 31.1127 31.8277 32.5576 33.3017 34.0588 34.8281 35.609 36.4006 37.2022 38.0132 38.833 39.598 40.3113 41.0122 41.7253 42.4264 43.1393 43.8634 44.5982 45.3431 46.0977 46.8615 47.634 48.4149 49.2037 49.8197 49.0408 48.2597 47.4342 46.6154 45.793 44.9444 44.1022 43.2666 42.4382 41.6173 40.8044 40 39.2046 38.4187 37.6431 36.8782 36.0555 35.2278 34.4093 33.541 32.6497 31.7648 30.8869 30.0167 29.1548 28.3019 27.4591 26.6271 25.807 25 24.2074 23.4307 22.6716 21.9317 21.2132 20.5183 19.7231 18.868 18.0278 17.2047 16.4012 15.6205 14.8661 14.1421 13.4164 12.53 11.6619 10.8167 10 9.21954 8.48528 7.61577 6.7082 5.83095 5 4.24264 3.60555 2.82843 2.23607 1.41421 1 0 1 1.41421 2.23607 2.82843 3.60555 4.24264 5 5.83095 5.65685 5 4.47214 4.12311 3.60555 2.82843 2.23607 1.41421 1 0 0 1 1.41421 2.23607 2.82843 3.16228 3.60555 4.24264 5 5.65685 6.40312 7.07107 7.81025 8.48528 9.21954 9.8995 9.43398 8.60233 7.81025 7.07107 6.32456 5.38516 4.47214 3.60555 2.82843 2.23607 1.41421 1 0 1 1.41421 2.23607 2.82843 3.60555 4.47214 5.38516 6.32456 7.07107 7.81025 8.48528 9.21954 10 10.8167 11.6619 12.53 13.4164 14.2127 15 15.8114 16.6433 17.4929 18.3576 19.105 19.8494 20.6155 21.4009 22.2036 23.0217 23.8537 24.6982 25.5539 26.4008 27.2029 28.0179 28.8444 29.6816 30.5287 31.3847 32.2025 33.0151 33.8378 34.6699 35.4683 36.2353 37.0135 37.8021 38.6005 39.4081 40.2244 41.0488 41.1096 40.1123 39.1152 38.1182 37.1214 36.1248 35.1283 34.1321 33.1361 32.1403 31.1448 30.1496 29.1548 28.1603 27.1662 26.1725 25.1794 24.1868 23.1948 22.2036 21.2132 20.2237 19.2354 18.2483 17.2627 16.2788 15.2971 14.3178 13.3417 12.3693 11.4018 10.4403 9.48683 8.544 7.61577 6.7082 5.83095 5 4 3 2 1 0 1 2 3 4 5 6 7 8 9 10 11 12 13 14 15 16 17 18 19 20 21 22 23 24 25 26 27 28 29 30 31 32 33 34 35 36 37 38 39 40 41 42 43 44 45 46 47 48 49 50 51 52 53 54 55 56 57 58 59 60 61 62 63 64 65 66 67 68 69 70 71 72 73 74 75 76 77 78 79 80 81 80 79 78 77 76 75 74 73 72 71 70 69 68 67 66 65 64 63 62 61 60 59 58 57 56 55 54 53 52 51 50 49 48 47 46 45 44 43 42 41 40 39 38 37 36 35 34 33 32 31 30 29 28 27 26 25 24 23 22 21 20 19 18 17 16 15 14 13 12 11 10
35 36 37 38 39 40 41 42 43 44 45 46 47 48 49 50 51 52 53 54 55 56 57 58 59 60 61 62 63 64 65 66 67 68 69 70 71 72 73 74 75 76 77 78 79 80 81 82 83 84 85 86 87 88 89 90 91 92 93 93.771 92.7793 91.7878 90.7965 89.8053 88.8144 87.8237 86.8332 85.8429 84.8528 83.863 82.8734 81.8841 80.895 79.9062 78.9177 77.9295 76.9415 75.9539 74.9667 73.9797 72.9931 72.0069 71.0211 70.0357 69.0507 68.0661 67.082 66.0984 65.1153 64.1327 63.1506 62.1691 61.1882 60.208 59.2284 58.2495 57.2713 56.2939 55.3173 54.3415 53.3667 52.3927 51.4198 50.448 49.4773 48.5077 47.5395 46.5725 45.607 44.643 43.6807 42.72 41.7612 40.8044 39.8497 38.8973 37.9473 37 36.0555 35.1141 34.176 33.2415 32.311 31.3847 30.4631 29.5466 28.6356 27.7308 26.8328 25.9422 25.0599 24.1868 23.3238 22.4722 21.6333 20.8087 20 19.2094 18.4391 17.6918 16.9706 16.2788 15.6205 15 14.4222 13.8924 13.4164 13 12.6491 12.3693 12.1655 12.0416 12 12 12.0416 12.1655 12.3693 12.6491 13 13.4164 13.8924 14.4222 15 15.6205 16.2788 16.9706 17.6918 18.3848 19.105 19.799 20.5183 21.2132 21.9317 22.6716 23.4307 24.2074 25 25.807 26.6271 27.4591 28.2843 29 29.6985 30.4138 31.1127 31.8277 32.5269 33.2415 33.9706 34.7131 35.4683 36.2353 37.0135 37.8021 38.6005 39.4081 40.2244 41.0122 41.7253 42.4264 43.1393 43.8406 44.5533 45.2769 46.0109 46.7547 47.5079 48.2701 49.0408 49.8197 49.2037 48.4149 47.634 46.8615 46.0435 45.2217 44.4072 43.566 42.72 41.8808 41.0488 40.2244 39.4081 38.6005 37.8021 37.0135 36.2353 35.4683 34.6699 33.8378 33.0151 32.2025 31.305 30.4138 29.5296 28.6531 27.7849 26.9258 26.0768 25.2389 24.4131 23.6008 22.8035 22.0227 21.2603 20.5183 19.799 19.105 18.3576 17.4929 16.6433 15.8114 15 14.2127 13.4536 12.7279 12.0416 11.1803 10.2956 9.43398 8.60233 7.81025 7.07107 6.32456 5.38516 4.47214 3.60555 2.82843 2.23607 1.41421 1 0 0 1 2 2.82843 3.60555 4.24264 5 5.65685 5.65685 5 4.24264 3.60555 3.16228 2.82843 2.23607 1.41421 1 0 0 1 1.41421 2.23607 2.82843 3.60555 4.12311 4.47214 5 5.65685 6.40312 7.07107 7.81025 8.48528 9.21954 9.8995 10.6301 10 9.21954 8.48528 7.61577 6.7082 5.83095 5 4.24264 3.60555 2.82843 2 1 0 0 1 1.41421 2.23607 3.16228 4.12311 5 5.65685 6.40312 7.07107 7.81025 8.60233 9.43398 10.2956 11.1803 12.0416 12.8062 13.6015 14.4222 15.2643 16.1245 16.9706 17.6918 18.4391 19.2094 20 20.8087 21.6333 22.4722 23.3238 24.1868 25 25.807 26.6271 27.4591 28.3019 29.1548 30 30.8058 31.6228 32.45 33.2866 34.0588 34.8281 35.609 36.4006 37.2022 38.0132 38.833 39.6611 40.4599 41.1947 40.1995 39.2046 38.2099 37.2156 36.2215 35.2278 34.2345 33.2415 32.249 31.257 30.2655 29.2746 28.2843 27.2947 26.3059 25.318 24.3311 23.3452 22.3607 21.3776 20.3961 19.4165 18.4391 17.4642 16.4924 15.5242 14.5602 13.6015 12.6491 11.7047 10.7703 9.84886 8.94427 8 7 6 5 4 3 2 1 0 1 2 3 4 5 6 7 8 9 10 11 12 13 14 15 16 17 18 19 20 21 22 23 24 25 26 27 28 29 30 31 32 33 34 35 36 37 38 39 40 41 42 43 44 45 46 47 48 49 50 51 52 53 54 55 56 57 58 59 60 61 62 63 64 65 66 67 68 69 70 71 72 73 74 75 76 77 78 79 80 81 80 79 78 77 76 75 74 73 72 71 70 69 68 67 66 65 64 63 62 61 60 59 58 57 56 55 54 53 52 51 50 49 48 47 46 45 44 43 42 41 40 39 38 37 36 35 34 33 32 31 30 29 28 27 26 25 24 23 22 21 20 19 18 17 16 15 14 13 12 11 10
35 36 37 38 39 40 41 42 43 44 45 46 47 48 49 50 51 52 53 54 55 56 57 58 59 60 61 62 63 64 65 66 67 68 69 70 71 72 73 74 75 76 77 78 79 80 81 82 83 84 85 86 87 88 89 90 91 92 93 93.9042 92.9139 91.9239 90.934 89.9444 88.955 87.9659 86.977 85.9884 85 84.0119 83.0241 82.0366 81.0494 80.0625 79.0759 78.0897 77.1038 76.1183 75.1332 74.1485 73.1642 72.1803 71.1969 70.214 69.2315 68.2495 67.2681 66.2873 65.307 64.3273 63.3482 62.3699 61.3922 60.4152 59.439 58.4637 57.4891 56.5155 55.5428 54.5711 53.6004 52.6308 51.6624 50.6952 49.7293 48.7647 47.8017 46.8402 45.8803 44.9222 43.9659 43.0116 42.0595 41.1096 40.1622 39.2173 38.2753 37.3363 36.4006 35.4683 34.5398 33.6155 32.6956 31.7805 30.8707 29.9666 29.0689 28.178 27.2947 26.4197 25.5539 24.6982 23.8537 23.0217 22.2036 21.4009 20.6155 19.8494 19.105 18.3848 17.6918 17.0294 16.4012 15.8114 15.2643 14.7648 14.3178 13.9284 13.6015 13.3417 13.1529 13.0384 13 13 13.0384 13.1529 13.3417 13.6015 13.9284 14.3178 14.7648 15.2643 15.8114 16.4012 17.0294 17.6918 18.3848 19.105 19.799 20.5183 21.2132 21.9317 22.6274 23.3452 24.0832 24.8395 25.6125 26.4008 27.2029 28.0179 28.8444 29.6816 30.4138 31.1127 31.8277 32.5269 33.2415 33.9411 34.6554 35.3836 36.1248 36.8782 37.6431 38.4187 39.2046 40 40.8044 41.6173 42.4264 43.1393 43.8406 44.5533 45.2548 45.9674 46.6905 47.4236 48.1664 48.9183 49.679 49.4065 48.6004 47.8017 47.0106 46.2277 45.4533 44.6542 43.8292 43.0116 42.19 41.3401 40.4969 39.6611 38.833 38.0132 37.2022 36.4006 35.609 34.8281 34.0588 33.2866 32.45 31.6228 30.8058 29.9666 29.0689 28.178 27.2947 26.4197 25.5539 24.6982 23.8537 23.0217 22.2036 21.4009 20.6155 19.8494 19.105 18.3848 17.6918 17 16.1245 15.2643 14.4222 13.6015 12.8062 12.0416 11.3137 10.6301 9.84886 8.94427 8.06226 7.2111 6.40312 5.65685 5 4.12311 3.16228 2.23607 1.41421 1 0 0 1 1.41421 2.23607 3.16228 4.12311 5 5.65685 5.65685 5 4.24264 3.60555 2.82843 2.23607 2 1.41421 1 0 0 1 1.41421 2.23607 2.82843 3.60555 4.24264 5 5.38516 5.83095 6.40312 7.07107 7.81025 8.48528 9.21954 9.8995 10.6301 11.3137 10.6301 9.84886 8.94427 8.06226 7.2111 6.40312 5.65685 5 4.12311 3.16228 2.23607 1.41421 1 0 0 1 2 2.82843 3.60555 4.24264 5 5.65685 6.40312 7.2111 8.06226 8.94427 9.84886 10.6301 11.4018 12.2066 13.0384 13.8924 14.7648 15.5563 16.2788 17.0294 17.8045 18.6011 19.4165 20.2485 21.095 21.9545 22.8035 23.6008 24.4131 25.2389 26.0768 26.9258 27.7849 28.6007 29.4109 30.2324 31.0644 31.8904 32.6497 33.4216 34.2053 35 35.805 36.6197 37.4433 38.2753 39.0512 39.8246 40.6079 40.3113 39.3192 38.3275 37.3363 36.3456 35.3553 34.3657 33.3766 32.3883 31.4006 30.4138 29.4279 28.4429 27.4591 26.4764 25.4951 24.5153 23.5372 22.561 21.587 20.6155 19.6469 18.6815 17.72 16.7631 15.8114 14.8661 13.9284 13 12 11 10 9 8 7 6 5 4 3 2 1 0 1 2 3 4 5 6 7 8 9 10 11 12 13 14 15 16 17 18 19 20 21 22 23 24 25 26 27 28 29 30 31 32 33 34 35 36 37 38 39 40 41 42 43 44 45 46 47 48 49 50 51 52 53 54 55 56 57 58 59 60 61 62 63 64 65 66 67 68 69 70 71 72 73 74 75 76 77 78 79 80 81 80 79 78 77 76 75 74 73 72 71 70 69 68 67 66 65 64 63 62 61 60 59 58 57 56 55 54 53 52 51 50 49 48 47 46 45 44 43 42 41 40 39 38 37 36 35 34 33 32 31 30 29 28 27 26 25 24 23 22 21 20 19 18 17 16 15 14 13 12 11 10
35 36 37 38 39 40 41 42 43 44 45 46 47 48 49 50 51 52 53 54 55 56 57 58 59 60 61 62 63 64 65 66 67 68 69 70 71 72 73 74 75 76 77 78 79 80 81 82 83 84 85 86 87 88 89 90 91 92 93 94 93.0591 92.0706 91.0824 90.0944 89.1067 88.1192 87.1321 86.1452 85.1587 84.1724 83.1865 82.201 81.2158 80.2309 79.2465 78.2624 77.2787 76.2955 75.3127 74.3303 73.3485 72.3671 71.3863 70.406 69.4262 68.4471 67.4685 66.4906 65.5134 64.5368 63.561 62.5859 61.6117 60.6383 59.6657 58.6941 57.7235 56.7539 55.7853 54.8179 53.8516 52.8867 51.923 50.9608 50 49.0408 48.0833 47.1275 46.1736 45.2217 44.2719 43.3244 42.3792 41.4367 40.4969 39.5601 38.6264 37.6962 36.7696 35.8469 34.9285 34.0147 33.1059 32.2025 31.305 30.4138 29.5296 28.6531 27.7849 26.9258 26.0768 25.2389 24.4131 23.6008 22.8035 22.0227 21.2603 20.5183 19.799 19.105 18.4391 17.8045 17.2047 16.6433 16.1245 15.6525 15.2315 14.8661 14.5602 14.3178 14.1421 14.0357 14 14 14.0357 14.1421 14.3178 14.5602 14.8661 15.2315 15.6525 16.1245 16.6433 17.2047 17.8045 18.4391 19.105 19.799 20.5183 21.2132 21.9317 22.6274 23.3452 24.0416 24.7588 25.4951 26.2488 27.0185 27.8029 28.6007 29.4109 30.2324 31.0644 31.8277 32.5269 33.2415 33.9411 34.6554 35.3553 36.0694 36.7967 37.5366 38.2884 39.0512 39.8246 40.6079 41.4005 42.2019 43.0116 43.8292 44.5533 45.2548 45.9674 46.669 47.3814 48.1041 48.8365 49.5782 49.6488 48.8262 48.0104 47.2017 46.4004 45.607 44.8219 44.0454 43.2666 42.4382 41.6173 40.8044 39.9625 39.1152 38.2753 37.4433 36.6197 35.805 35 34.2053 33.4216 32.6497 31.8904 31.0644 30.2324 29.4109 28.6007 27.7308 26.8328 25.9422 25.0599 24.1868 23.3238 22.4722 21.6333 20.8087 20 19.2094 18.4391 17.6918 16.9706 16.2788 15.6205 14.7648 13.8924 13.0384 12.2066 11.4018 10.6301 9.8995 9.21954 8.48528 7.61577 6.7082 5.83095 5 4.24264 3.60555 2.82843 2 1 0 0 1 1.41421 2.23607 2.82843 3.60555 4.47214 5.38516 5.83095 5 4.24264 3.60555 2.82843 2.23607 1.41421 1 1 0 0 1 1.41421 2.23607 2.82843 3.60555 4.24264 5 5.65685 6.32456 6.7082 7.2111 7.81025 8.48528 9.21954 9.8995 10.6301 11.3137 12.0416 11.1803 10.2956 9.43398 8.60233 7.81025 7.07107 6.32456 5.38516 4.47214 3.60555 2.82843 2.23607 1.41421 1 0 1 1.41421 2.23607 2.82843 3.60555 4.24264 5 5.83095 6.7082 7.61577 8.48528 9.21954 10 10.8167 11.6619 12.53 13.4164 14.1421 14.8661 15.6205 16.4012 17.2047 18.0278 18.868 19.7231 20.5913 21.4009 22.2036 23.0217 23.8537 24.6982 25.5539 26.4008 27.2029 28.0179 28.8444 29.6816 30.4795 31.241 32.0156 32.8024 33.6006 34.4093 35.2278 36.0555 36.8782 37.6431 38.4187 39.2046 40 40.4475 39.4588 38.4708 37.4833 36.4966 35.5106 34.5254 33.541 32.5576 31.5753 30.5941 29.6142 28.6356 27.6586 26.6833 25.7099 24.7386 23.7697 22.8035 21.8403 20.8806 19.9249 18.9737 18 17 16 15 14 13 12 11 10 9 8 7 6 5 4 3 2 1 0 1 2 3 4 5 6 7 8 9 10 11 12 13 14 15 16 17 18 19 20 21 22 23 24 25 26 27 28 29 30 31 32 33 34 35 36 37 38 39 40 41 42 43 44 45 46 47 48 49 50 51 52 53 54 55 56 57 58 59 60 61 62 63 64 65 66 67 68 69 70 71 72 73 74 75 76 77 78 79 80 81 80 79 78 77 76 75 74 73 72 71 70 69 68 67 66 65 64 63 62 61 60 59 58 57 56 55 54 53 52 51 50 49 48 47 46 45 44 43 42 41 40 39 38 37 36 35 34 33 32 31 30 29 28 27 26 25 24 23 22 21 20 19 18 17 16 15 14 13 12 11 10
35 36 37 38 39 40 41 42 43 44 45 46 47 48 49 50 51 52 53 54 55 56 57 58 59 60 61 62 63 64 65 66 67 68 69 70 71 72 73 74 75 76 77 78 79 80 81 82 83 84 85 86 87 88 89 90 91 92 93 94 93.2148 92.228 91.2414 90.2552 89.2693 88.2836 87.2983 86.3134 85.3288 84.3445 83.3607 82.3772 81.3941 80.4114 79.4292 78.4474 77.4661 76.4853 75.505 74.5252 73.5459 72.5672 71.5891 70.6116 69.6348 68.6586 67.6831 66.7083 65.7343 64.7611 63.7887 62.8172 61.8466 60.8769 59.9083 58.9406 57.9741 57.0088 56.0446 55.0818 54.1202 53.1601 52.2015 51.2445 50.2892 49.3356 48.3839 47.4342 46.4866 45.5412 44.5982 43.6578 42.72 41.7852 40.8534 39.9249 39 38.0789 37.1618 36.2491 35.3412 34.4384 33.541 32.6497 31.7648 30.8869 30.0167 29.1548 28.3019 27.4591 26.6271 25.807 25 24.2074 23.4307 22.6716 21.9317 21.2132 20.5183 19.8494 19.2094 18.6011 18.0278 17.4929 17 16.5529 16.1555 15.8114 15.5242 15.2971 15.1327 15.0333 15 15 15.0333 15.1327 15.2971 15.5242 15.8114 16.1555 16.5529 17 17.4929 18.0278 18.6011 19.2094 19.8494 20.5183 21.2132 21.9317 22.6274 23.3452 24.0416 24.7588 25.4558 26.1725 26.9072 27.6586 28.4253 29.2062 30 30.8058 31.6228 32.45 33.2415 33.9411 34.6554 35.3553 36.0694 36.7696 37.4833 38.2099 38.9487 39.6989 40.4599 41.2311 42.0119 42.8019 43.6005 44.4072 45.2217 45.9674 46.669 47.3814 48.0833 48.7955 49.5177 49.8197 49.0408 48.2597 47.4342 46.6154 45.8039 45 44.2041 43.4166 42.638 41.8688 41.0488 40.2244 39.4081 38.5876 37.7359 36.8917 36.0555 35.2278 34.4093 33.6006 32.8024 32.0156 31.241 30.4795 29.6816 28.8444 28.0179 27.2029 26.4008 25.4951 24.5967 23.7065 22.8254 21.9545 21.095 20.2485 19.4165 18.6011 17.8045 17.0294 16.2788 15.5563 14.8661 14.2127 13.4164 12.53 11.6619 10.8167 10 9.21954 8.48528 7.81025 7.07107 6.32456 5.38516 4.47214 3.60555 2.82843 2.23607 1.41421 1 0 1 1.41421 2.23607 2.82843 3.60555 4.24264 5 5.65685 5 4.47214 3.60555 2.82843 2.23607 1.41421 1 0 0 0 1 1.41421 2.23607 2.82843 3.60555 4.24264 5 5.65685 6.40312 7.07107 7.61577 8.06226 8.60233 9.21954 9.8995 10.6301 11.3137 12.0416 12.53 11.6619 10.8167 10 9.21954 8.48528 7.61577 6.7082 5.83095 5 4.24264 3.60555 2.82843 2 1 0 0 1 1.41421 2.23607 2.82843 3.60555 4.47214 5.38516 6.32456 7.07107 7.81025 8.60233 9.43398 10.2956 11.1803 12.0416 12.7279 13.4536 14.2127 15 15.8114 16.6433 17.4929 18.3576 19.2094 20 20.8087 21.6333 22.4722 23.3238 24.1868 25 25.807 26.6271 27.4591 28.3019 29.0689 29.8329 30.6105 31.4006 32.2025 33.0151 33.8378 34.6699 35.4683 36.2353 37.0135 37.8021 38.6005 39.4081 40.2244 39.6232 38.6394 37.6563 36.6742 35.6931 34.7131 33.7343 32.7567 31.7805 30.8058 29.8329 28.8617 27.8927 26.9258 25.9615 25 24 23 22 21 20 19 18 17 16 15 14 13 12 11 10 9 8 7 6 5 4 3 2 1 0 1 2 3 4 5 6 7 8 9 10 11 12 13 14 15 16 17 18 19 20 21 22 23 24 25 26 27 28 29 30 31 32 33 34 35 36 37 38 39 40 41 42 43 44 45 46 47 48 49 50 51 52 53 54 55 56 57 58 59 60 61 62 63 64 65 66 67 68 69 70 71 72 73 74 75 76 77 78 79 80 81 80 79 78 77 76 75 74 73 72 71 70 69 68 67 66 65 64 63 62 61 60 59 58 57 56 55 54 53 52 51 50 49 48 47 46 45 44 43 42 41 40 39 38 37 36 35 34 33 32 31 30 29 28 27 26 25 24 23 22 21 20 19 18 17 16 15 14 13 12 11 10
35 36 37 38 39 40 41 42 43 44 45 46 47 48 49 50 51 52 53 54 55 56 57 58 59 60 61 62 63 64 65 66 67 68 69 70 71 72 73 74 75 76 77 78 79 80 81 82 83 84 85 86 87 88 89 90 91 92 93 94 93.3809 92.3959 91.4112 90.4268 89.4427 88.459 87.4757 86.4928 85.5102 84.5281 83.5464 82.5651 81.5843 80.604 79.6241 78.6448 77.666 76.6877 75.71 74.7329 73.7564 72.7805 71.8053 70.8308 69.857 68.884 67.9117 66.9403 65.9697 65 64.0312 63.0635 62.0967 61.131 60.1664 59.203 58.2409 57.28 56.3205 55.3624 54.4059 53.4509 52.4976 51.5461 50.5964 49.6488 48.7032 47.7598 46.8188 45.8803 44.9444 44.0114 43.0813 42.1545 41.2311 40.3113 39.3954 38.4838 37.5766 36.6742 35.7771 34.8855 34 33.121 32.249 31.3847 30.5287 29.6816 28.8444 28.0179 27.2029 26.4008 25.6125 24.8395 24.0832 23.3452 22.6274 21.9317 21.2603 20.6155 20 19.4165 18.868 18.3576 17.8885 17.4642 17.088 16.7631 16.4924 16.2788 16.1245 16.0312 16 16 16.0312 16.1245 16.2788 16.4924 16.7631 17.088 17.4642 17.8885 18.3576 18.868 19.4165 20 20.6155 21.2603 21.9317 22.6274 23.3452 24.0416 24.7588 25.4558 26.1725 26.8701 27.5862 28.3196 29.0689 29.8329 30.6105 31.4006 32.2025 33.0151 33.8378 34.6554 35.3553 36.0694 36.7696 37.4833 38.1838 38.8973 39.6232 40.3609 41.1096 41.8688 42.638 43.4166 44.2041 45 45.8039 46.6154 47.3814 48.0833 48.7955 49.4975 50 49.2037 48.4149 47.634 46.8615 46.0435 45.2217 44.4072 43.6005 42.8019 42.0119 41.2311 40.4599 39.6611 38.833 38.0132 37.2022 36.3593 35.5106 34.6699 33.8378 33.0151 32.2025 31.4006 30.6105 29.8329 29.0689 28.3019 27.4591 26.6271 25.807 25 24.1661 23.2594 22.3607 21.4709 20.5913 19.7231 18.868 18.0278 17.2047 16.4012 15.6205 14.8661 14.1421 13.4536 12.8062 12.0416 11.1803 10.2956 9.43398 8.60233 7.81025 7.07107 6.40312 5.65685 5 4.12311 3.16228 2.23607 1.41421 1 0 0 1 2 2.82843 3.60555 4.24264 5 5.65685 5 4.24264 3.60555 3.16228 2.23607 1.41421 1 0 0 0 1 1.41421 2.23607 2.82843 3.60555 4.24264 5 5.65685 6.40312 7.07107 7.81025 8.48528 8.94427 9.43398 10 10.6301 11.3137 12.0416 12.7279 13.0384 12.2066 11.4018 10.6301 9.84886 8.94427 8.06226 7.2111 6.40312 5.65685 5 4.12311 3.16228 2.23607 1.41421 1 0 0 1 1.41421 2.23607 3.16228 4.12311 5 5.65685 6.40312 7.2111 8.06226 8.94427 9.84886 10.6301 11.3137 12.0416 12.8062 13.6015 14.4222 15.2643 16.1245 17 17.8045 18.6011 19.4165 20.2485 21.095 21.9545 22.8035 23.6008 24.4131 25.2389 26.0768 26.9072 27.6586 28.4253 29.2062 30 30.8058 31.6228 32.45 33.2866 34.0588 34.8281 35.609 36.4006 37.2022 38.0132 38.833 39.6611 39.8121 38.833 37.855 36.8782 35.9026 34.9285 33.9559 32.9848 32 31 30 29 28 27 26 25 24 23 22 21 20 19 18 17 16 15 14 13 12 11 10 9 8 7 6 5 4 3 2 1 0 1 2 3 4 5 6 7 8 9 10 11 12 13 14 15 16 17 18 19 20 21 22 23 24 25 26 27 28 29 30 31 32 33 34 35 36 37 38 39 40 41 42 43 44 45 46 47 48 49 50 51 52 53 54 55 56 57 58 59 60 61 62 63 64 65 66 67 68 69 70 71 72 73 74 75 76 77 78 79 80 81 80 79 78 77 76 75 74 73 72 71 70 69 68 67 66 65 64 63 62 61 60 59 58 57 56 55 54 53 52 51 50 49 48 47 46 45 44 43 42 41 40 39 38 37 36 35 34 33 32 31 30 29 28 27 26 25 24 23 22 21 20 19 18 17 16 15 14 13 12 11 10
35 36 37 38 39 40 41 42 43 44 45 46 47 48 49 50 51 52 53 54 55 56 57 58 59 60 61 62 63 64 65 66 67 68 69 70 71 72 73 74 75 76 77 78 79 80 81 82 83 84 85 86 87 88 89 90 91 92 93 94 93.5575 92.5743 91.5915 90.609 89.627 88.6454 87.6641 86.6833 85.703 84.7231 83.7437 82.7647 81.7863 80.8084 79.8311 78.8543 77.8781 76.9025 75.9276 74.9533 73.9797 73.0069 72.0347 71.0634 70.0928 69.1231 68.1542 67.1863 66.2193 65.2533 64.2884 63.3246 62.3618 61.4003 60.4401 59.4811 58.5235 57.5674 56.6127 55.6597 54.7083 53.7587 52.811 51.8652 50.9215 49.98 49.0408 48.1041 47.1699 46.2385 45.31 44.3847 43.4626 42.5441 41.6293 40.7185 39.8121 38.9102 38.0132 37.1214 36.2353 35.3553 34.4819 33.6155 32.7567 31.9061 31.0644 30.2324 29.4109 28.6007 27.8029 27.0185 26.2488 25.4951 24.7588 24.0416 23.3452 22.6716 22.0227 21.4009 20.8087 20.2485 19.7231 19.2354 18.7883 18.3848 18.0278 17.72 17.4642 17.2627 17.1172 17.0294 17 17 17.0294 17.1172 17.2627 17.4642 17.72 18.0278 18.3848 18.7883 19.2354 19.7231 20.2485 20.8087 21.4009 22.0227 22.6716 23.3452 24.0416 24.7588 25.4558 26.1725 26.8701 27.5862 28.2843 29 29.7321 30.4795 31.241 32.0156 32.8024 33.6006 34.4093 35.2278 36.0555 36.7696 37.4833 38.1838 38.8973 39.598 40.3113 41.0366 41.7732 42.5206 43.2782 44.0454 44.8219 45.607 46.4004 47.2017 48.0104 48.7955 49.4975 50.2096 49.4065 48.6004 47.8017 47.0106 46.2277 45.4533 44.6542 43.8292 43.0116 42.2019 41.4005 40.6079 39.8246 39.0512 38.2753 37.4433 36.6197 35.805 34.9857 34.1321 33.2866 32.45 31.6228 30.8058 30 29.2062 28.4253 27.6586 26.9072 26.0768 25.2389 24.4131 23.6008 22.8035 21.9317 21.0238 20.1246 19.2354 18.3576 17.4929 16.6433 15.8114 15 14.2127 13.4536 12.7279 12.0416 11.4018 10.6301 9.84886 8.94427 8.06226 7.2111 6.40312 5.65685 5 4.24264 3.60555 2.82843 2 1 0 0 1 1.41421 2.23607 3.16228 4.12311 5 5.65685 5 4.24264 3.60555 2.82843 2.23607 2 1 0 0 1 1 1.41421 2.23607 2.82843 3.60555 4.24264 5 5.65685 6.40312 7.07107 7.81025 8.48528 9.21954 9.84886 10.2956 10.8167 11.4018 12.0416 12.7279 13.4536 13.6015 12.8062 12.0416 11.1803 10.2956 9.43398 8.60233 7.81025 7.07107 6.32456 5.38516 4.47214 3.60555 2.82843 2.23607 1.41421 1 0 0 1 2 2.82843 3.60555 4.24264 5 5.83095 6.7082 7.61577 8.48528 9.21954 9.8995 10.6301 11.4018 12.2066 13.0384 13.8924 14.7648 15.6205 16.4012 17.2047 18.0278 18.868 19.7231 20.5913 21.4009 22.2036 23.0217 23.8537 24.6982 25.4951 26.2488 27.0185 27.8029 28.6007 29.4109 30.2324 31.0644 31.8904 32.6497 33.4216 34.2053 35 35.805 36.6197 37.4433 38.2753 39.0512 39.8246 39 38 37 36 35 34 33 32 31 30 29 28 27 26 25 24 23 22 21 20 19 18 17 16 15 14 13 12 11 10 9 8 7 6 5 4 3 2 1 0 1 2 3 4 5 6 7 8 9 10 11 12 13 14 15 16 17 18 19 20 21 22 23 24 25 26 27 28 29 30 31 32 33 34 35 36 37 38 39 40 41 42 43 44 45 46 47 48 49 50 51 52 53 54 55 56 57 58 59 60 61 62 63 64 65 66 67 68 69 70 71 72 72.9931 73.9797 74.9667 75.9539 76.9415 77.9295 78.9177 79.9062 80.895 80 79 78 77 76 75 74 73 72 71 70 69 68 67 66 65 64 63 62 61 60 59 58 57 56 55 54 53 52 51 50 49 48 47 46 45 44 43 42 41 40 39 38 37 36 35 34 33 32 31 30 29 28 27 26 25 24 23 22 21 20 19 18 17 16 15 14 13 12 11 10
35 36 37 38 39 40 41 42 43 44 45 46 47 48 49 50 51 52 53 54 55 56 57 58 59 60 61 62 63 64 65 66 67 68 69 70 71 72 73 74 75 76 77 78 79 80 81 82 83 84 85 86 87 88 89 90 91 92 93 94 93.7443 92.7631 91.7823 90.802 89.822 88.8426 87.8635 86.885 85.9069 84.9294 83.9524 82.9759 82 81.0247 80.05 79.0759 78.1025 77.1298 76.1577 75.1864 74.2159 73.2462 72.2772 71.3092 70.342 69.3758 68.4105 67.4463 66.4831 65.521 64.5601 63.6003 62.6418 61.6847 60.7289 59.7746 58.8218 57.8705 56.921 55.9732 55.0273 54.0833 53.1413 52.2015 51.264 50.3289 49.3964 48.4665 47.5395 46.6154 45.6946 44.7772 43.8634 42.9535 42.0476 41.1461 40.2492 39.3573 38.4708 37.5899 36.7151 35.8469 34.9857 34.1321 33.2866 32.45 31.6228 30.8058 30 29.2062 28.4253 27.6586 26.9072 26.1725 25.4558 24.7588 24.0832 23.4307 22.8035 22.2036 21.6333 21.095 20.5913 20.1246 19.6977 19.3132 18.9737 18.6815 18.4391 18.2483 18.1108 18.0278 18 18 18.0278 18.1108 18.2483 18.4391 18.6815 18.9737 19.3132 19.6977 20.1246 20.5913 21.095 21.6333 22.2036 22.8035 23.4307 24.0832 24.7588 25.4558 26.1725 26.8701 27.5862 28.2843 29 29.6985 30.4138 31.1448 31.8904 32.6497 33.4216 34.2053 35 35.805 36.6197 37.4433 38.1838 38.8973 39.598 40.3113 41.0122 41.7253 42.45 43.1856 43.9318 44.6878 45.4533 46.2277 47.0106 47.8017 48.6004 49.4065 50.2096 49.6488 48.8262 48.0104 47.2017 46.4004 45.607 44.8219 44.0454 43.2666 42.4382 41.6173 40.8044 40 39.2046 38.4187 37.6431 36.8782 36.0555 35.2278 34.4093 33.6006 32.7567 31.9061 31.0644 30.2324 29.4109 28.6007 27.8029 27.0185 26.2488 25.4951 24.6982 23.8537 23.0217 22.2036 21.4009 20.5913 19.6977 18.7883 17.8885 17 16.1245 15.2643 14.4222 13.6015 12.8062 12.0416 11.3137 10.6301 10 9.21954 8.48528 7.61577 6.7082 5.83095 5 4.24264 3.60555 2.82843 2.23607 1.41421 1 0 1 1.41421 2.23607 2.82843 3.60555 4.47214 5.38516 5 4.24264 3.60555 2.82843 2.23607 1.41421 1 1 0 1 1.41421 2 2.23607 2.82843 3.60555 4.24264 5 5.65685 6.40312 7.07107 7.81025 8.48528 9.21954 9.8995 10.6301 11.1803 11.6619 12.2066 12.8062 13.4536 14.1421 14.2127 13.4164 12.53 11.6619 10.8167 10 9.21954 8.48528 7.61577 6.7082 5.83095 5 4.24264 3.60555 2.82843 2.23607 1.41421 1 0 1 1.41421 2.23607 2.82843 3.60555 4.47214 5.38516 6.32456 7.07107 7.81025 8.48528 9.21954 10 10.8167 11.6619 12.53 13.4164 14.2127 15 15.8114 16.6433 17.4929 18.3576 19.2094 20 20.8087 21.6333 22.4722 23.3238 24.0832 24.8395 25.6125 26.4008 27.2029 28.0179 28.8444 29.6816 30.4795 31.241 32.0156 32.8024 33.6006 34.4093 35.2278 36.0555 36.8782 37.6431 38.4187 39.2046 39 38 37 36 35 34 33 32 31 30 29 28 27 26 25 24 23 22 21 20 19 18 17 16 15 14 13 12 11 10 9 8 7 6 5 4 3 2 1 0 1 2 3 4 5 6 7 8 9 10 11 12 13 14 15 16 17 18 19 20 21 22 23 24 25 26 27 28 29 30 31 32 33 34 35 36 37 38 39 40 41 42 43 44 45 46 47 48 49 50 51 52 53 54 55 56 57 58 59 60 61 61.9839 62.9682 63.9531 64.9384 65.9242 66.9104 67.897 68.884 69.8713 70.859 71.8471 72.8354 73.8241 74.8131 75.8024 76.7919 77.7817 78.7718 79.7621 80.7527 80 79 78 77 76 75 74 73 72 71 70 69 68 67 66 65 64 63 62 61 60 59 58 57 56 55 54 53 52 51 50 49 48 47 46 45 44 43 42 41 40 39 38 37 36 35 34 33 32 31 30 29 28 27 26 25 24 23 22 21 20 19 18 17 16 15 14 13 12 11 10
35 36 37 38 39 40 41 42 43 44 45 46 47 48 49 50 51 52 53 54 55 56 57 58 59 60 61 62 63 64 65 66 67 68 69 70 71 72 73 74 75 76 77 78 79 80 81 82 83 84 85 86 87 88 89 90 91 92 93 94 93.9415 92.9624 91.9837 91.0055 90.0278 89.0505 88.0738 87.0976 86.122 85.1469 84.1724 83.1986 82.2253 81.2527 80.2808 79.3095 78.339 77.3692 76.4003 75.4321 74.4648 73.4983 72.5328 71.5681 70.6045 69.6419 68.6804 67.72 66.7608 65.8027 64.846 63.8905 62.9365 61.9839 61.0328 60.0833 59.1354 58.1893 57.2451 56.3028 55.3624 54.4243 53.4883 52.5547 51.6236 50.6952 49.7695 48.8467 47.927 47.0106 46.0977 45.1885 44.2832 43.382 42.4853 41.5933 40.7063 39.8246 38.9487 38.0789 37.2156 36.3593 35.5106 34.6699 33.8378 33.0151 32.2025 31.4006 30.6105 29.8329 29.0689 28.3196 27.5862 26.8701 26.1725 25.4951 24.8395 24.2074 23.6008 23.0217 22.4722 21.9545 21.4709 21.0238 20.6155 20.2485 19.9249 19.6469 19.4165 19.2354 19.105 19.0263 19 19 19.0263 19.105 19.2354 19.4165 19.6469 19.9249 20.2485 20.6155 21.0238 21.4709 21.9545 22.4722 23.0217 23.6008 24.2074 24.8395 25.4951 26.1725 26.8701 27.5862 28.2843 29 29.6985 30.4138 31.1127 31.8277 32.5576 33.3017 34.0588 34.8281 35.609 36.4006 37.2022 38.0132 38.833 39.598 40.3113 41.0122 41.7253 42.4264 43.1393 43.8634 44.5982 45.3431 46.0977 46.8615 47.634 48.4149 49.2037 50 49.93 49.0918 48.2597 47.4342 46.6154 45.8039 45 44.2041 43.4166 42.638 41.8688 41.0488 40.2244 39.4081 38.6005 37.8021 37.0135 36.2353 35.4683 34.6699 33.8378 33.0151 32.2025 31.3847 30.5287 29.6816 28.8444 28.0179 27.2029 26.4008 25.6125 24.8395 24.0832 23.3238 22.4722 21.6333 20.8087 20 19.2094 18.3576 17.4642 16.5529 15.6525 14.7648 13.8924 13.0384 12.2066 11.4018 10.6301 9.8995 9.21954 8.60233 7.81025 7.07107 6.32456 5.38516 4.47214 3.60555 2.82843 2.23607 1.41421 1 0 0 1 2 2.82843 3.60555 4.24264 5 5 4.24264 3.60555 2.82843 2.23607 1.41421 1 0 0 0 1 2 2.82843 3.16228 3.60555 4.24264 5 5.65685 6.40312 7.07107 7.81025 8.48528 9.21954 9.8995 10.6301 11.3137 12.0416 12.53 13.0384 13.6015 14.2127 14.8661 14.7648 13.8924 13.0384 12.2066 11.4018 10.6301 9.84886 8.94427 8.06226 7.2111 6.40312 5.65685 5 4.24264 3.60555 2.82843 2 1 0 0 1 1.41421 2.23607 3.16228 4.12311 5 5.65685 6.40312 7.07107 7.81025 8.60233 9.43398 10.2956 11.1803 12.0416 12.8062 13.6015 14.4222 15.2643 16.1245 17 17.8045 18.6011 19.4165 20.2485 21.095 21.9317 22.6716 23.4307 24.2074 25 25.807 26.6271 27.4591 28.3019 29.0689 29.8329 30.6105 31.4006 32.2025 33.0151 33.8378 34.6699 35.4683 36.2353 37.0135 37.8021 38.6005 39 38 37 36 35 34 33 32 31 30 29 28 27 26 25 24 23 22 21 20 19 18 17 16 15 14 13 12 11 10 9 8 7 6 5 4 3 2 1 0 1 2 3 4 5 6 7 8 9 10 11 12 13 14 15 16 17 18 19 20 21 22 23 24 25 26 27 28 29 30 31 32 33 34 35 36 37 38 39 40 41 42 43 44 45 46 47 48 49 50 50.9902 51.9711 52.9528 53.9351 54.9181 55.9017 56.8858 57.8705 58.8558 59.8415 60.8276 61.8142 62.8013 63.7887 64.7765 65.7647 66.7533 67.7422 68.7314 69.7209 70.7107 71.7008 72.6911 73.6817 74.6726 75.6637 76.6551 77.6466 78.6384 79.6304 80.6226 80 79 78 77 76 75 74 73 72 71 70 69 68 67 66 65 64 63 62 61 60 59 58 57 56 55 54 53 52 51 50 49 48 47 46 45 44 43 42 41 40 39 38 37 36 35 34 33 32 31 30 29 28 27 26 25 24 23 22 21 20 19 18 17 16 15 14 13 12 11 10
35 36 37 38 39 40 41 42 43 44 45 46 47 48 49 50 51 52 53 54 55 56 57 58 59 60 61 62 63 64 65 66 67 68 69 70 71 72 73 74 75 76 77 78 79 80 81 82 83 84 85 86 87 88 89 90 91 92 93 94 94.1488 93.1719 92.1954 91.2195 90.2441 89.2693 88.295 87.3212 86.3481 85.3756 84.4038 83.4326 82.4621 81.4923 80.5233 79.555 78.5875 77.6209 76.6551 75.6902 74.7262 73.7631 72.8011 71.8401 70.8802 69.9214 68.9638 68.0074 67.0522 66.0984 65.146 64.195 63.2456 62.2977 61.3514 60.407 59.4643 58.5235 57.5847 56.648 55.7136 54.7814 53.8516 52.9245 52 51.0784 50.1597 49.2443 48.3322 47.4236 46.5188 45.618 44.7214 43.8292 42.9418 42.0595 41.1825 40.3113 39.4462 38.5876 37.7359 36.8917 36.0555 35.2278 34.4093 33.6006 32.8024 32.0156 31.241 30.4795 29.7321 29 28.2843 27.5862 26.9072 26.2488 25.6125 25 24.4131 23.8537 23.3238 22.8254 22.3607 21.9317 21.5407 21.1896 20.8806 20.6155 20.3961 20.2237 20.0998 20.025 20 20 20.025 20.0998 20.2237 20.3961 20.6155 20.8806 21.1896 21.5407 21.9317 22.3607 22.8254 23.3238 23.8537 24.4131 25 25.6125 26.2488 26.9072 27.5862 28.2843 29 29.6985 30.4138 31.1127 31.8277 32.5269 33.2415 33.9706 34.7131 35.4683 36.2353 37.0135 37.8021 38.6005 39.4081 40.2244 41.0122 41.7253 42.4264 43.1393 43.8406 44.5533 45.2769 46.0109 46.7547 47.5079 48.2701 49.0408 49.8197 50.2195 49.3964 48.5489 47.7074 46.8722 46.0435 45.2217 44.4072 43.6005 42.8019 42.0119 41.2311 40.4599 39.6611 38.833 38.0132 37.2022 36.4006 35.609 34.8281 34.0588 33.2866 32.45 31.6228 30.8058 30 29.1548 28.3019 27.4591 26.6271 25.807 25 24.2074 23.4307 22.6716 21.9317 21.095 20.2485 19.4165 18.6011 17.8045 17 16.1245 15.2315 14.3178 13.4164 12.53 11.6619 10.8167 10 9.21954 8.48528 7.81025 7.2111 6.40312 5.65685 5 4.12311 3.16228 2.23607 1.41421 1 0 0 1 1.41421 2.23607 3.16228 4.12311 5 5 4.24264 3.60555 2.82843 2.23607 1.41421 1 0 0 1 1 1.41421 2.23607 3.16228 4.12311 4.47214 5 5.65685 6.40312 7.07107 7.81025 8.48528 9.21954 9.8995 10.6301 11.3137 12.0416 12.7279 13.4164 13.8924 14.4222 15 15.6205 15.2643 14.4222 13.6015 12.8062 12.0416 11.1803 10.2956 9.43398 8.60233 7.81025 7.07107 6.40312 5.65685 5 4.12311 3.16228 2.23607 1.41421 1 0 0 1 2 2.82843 3.60555 4.24264 5 5.65685 6.40312 7.2111 8.06226 8.94427 9.84886 10.6301 11.4018 12.2066 13.0384 13.8924 14.7648 15.6205 16.4012 17.2047 18.0278 18.868 19.7231 20.5183 21.2603 22.0227 22.8035 23.6008 24.4131 25.2389 26.0768 26.9072 27.6586 28.4253 29.2062 30 30.8058 31.6228 32.45 33.2866 34.0588 34.8281 35.609 36.4006 37.2022 38.0132 38.833 38 37 36 35 34 33 32 31 30 29 28 27 26 25 24 23 22 21 20 19 18 17 16 15 14 13 12 11 10 9 8 7 6 5 4 3 2 1 0 1 2 3 4 5 6 7 8 9 10 11 12 13 14 15 16 17 18 19 20 21 22 23 24 25 26 27 28 29 30 31 32 33 34 35 36 37 38 39 40 41 41.9762 42.9535 43.9318 44.911 45.8912 46.8722 47.8539 48.8365 49.8197 50.8035 51.788 52.7731 53.7587 54.7449 55.7315 56.7186 57.7062 58.6941 59.6825 60.6712 61.6604 62.6498 63.6396 64.6297 65.6201 66.6108 67.6018 68.593 69.5845 70.5762 71.5681 72.5603 73.5527 74.5453 75.5381 76.531 77.5242 78.5175 79.511 80.5047 80 79 78 77 76 75 74 73 72 71 70 69 68 67 66 65 64 63 62 61 60 59 58 57 56 55 54 53 52 51 50 49 48 47 46 45 44 43 42 41 40 39 38 37 36 35 34 33 32 31 30 29 28 27 26 25 24 23 22 21 20 19 18 17 16 15 14 13 12 11 10
35 36 37 38 39 40 41 42 43 44 45 46 47 48 49 50 51 52 53 54 55 56 57 58 59 60 61 62 63 64 65 66 67 68 69 70 71 72 73 74 75 76 77 78 79 80 81 82 83 84 85 86 87 88 89 90 91 92 93 94 94.3663 93.3916 92.4175 91.444 90.471 89.4986 88.5268 87.5557 86.5852 85.6154 84.6463 83.678 82.7103 81.7435 80.7775 79.8123 78.848 77.8845 76.922 75.9605 75 74.0405 73.0821 72.1249 71.1688 70.214 69.2604 68.3081 67.3573 66.4078 65.4599 64.5136 63.5689 62.6259 61.6847 60.7454 59.808 58.8727 57.9396 57.0088 56.0803 55.1543 54.231 53.3104 52.3927 51.4781 50.5668 49.6588 48.7545 47.8539 46.9574 46.0652 45.1774 44.2945 43.4166 42.5441 41.6773 40.8167 39.9625 39.1152 38.2753 37.4433 36.6197 35.805 35 34.2053 33.4216 32.6497 31.8904 31.1448 30.4138 29.6985 29 28.3196 27.6586 27.0185 26.4008 25.807 25.2389 24.6982 24.1868 23.7065 23.2594 22.8473 22.4722 22.1359 21.8403 21.587 21.3776 21.2132 21.095 21.0238 21 21 21.0238 21.095 21.2132 21.3776 21.587 21.8403 22.1359 22.4722 22.8473 23.2594 23.7065 24.1868 24.6982 25.2389 25.807 26.4008 27.0185 27.6586 28.3196 29 29.6985 30.4138 31.1127 31.8277 32.5269 33.2415 33.9411 34.6554 35.3836 36.1248 36.8782 37.6431 38.4187 39.2046 40 40.8044 41.6173 42.4264 43.1393 43.8406 44.5533 45.2548 45.9674 46.6905 47.4236 48.1664 48.9183 49.679 50.448 49.6488 48.8262 48.0104 47.1699 46.3249 45.4863 44.6542 43.8292 43.0116 42.2019 41.4005 40.6079 39.8246 39.0512 38.2753 37.4433 36.6197 35.805 35 34.2053 33.4216 32.6497 31.8904 31.0644 30.2324 29.4109 28.6007 27.7849 26.9258 26.0768 25.2389 24.4131 23.6008 22.8035 22.0227 21.2603 20.5183 19.7231 18.868 18.0278 17.2047 16.4012 15.6205 14.7648 13.8924 13 12.083 11.1803 10.2956 9.43398 8.60233 7.81025 7.07107 6.40312 5.83095 5 4.24264 3.60555 2.82843 2 1 0 0 1 1.41421 2.23607 2.82843 3.60555 4.47214 5 4.24264 3.60555 2.82843 2.23607 1.41421 1 0 0 1 1.41421 2 2.23607 2.82843 3.60555 4.47214 5.38516 5.83095 6.40312 7.07107 7.81025 8.48528 9.21954 9.8995 10.6301 11.3137 12.0416 12.7279 13.4536 14.1421 14.7648 15.2643 15.8114 16.4012 15.8114 15 14.2127 13.4164 12.53 11.6619 10.8167 10 9.21954 8.48528 7.81025 7.07107 6.32456 5.38516 4.47214 3.60555 2.82843 2.23607 1.41421 1 0 1 1.41421 2.23607 2.82843 3.60555 4.24264 5 5.83095 6.7082 7.61577 8.48528 9.21954 10 10.8167 11.6619 12.53 13.4164 14.2127 15 15.8114 16.6433 17.4929 18.3576 19.105 19.8494 20.6155 21.4009 22.2036 23.0217 23.8537 24.6982 25.4951 26.2488 27.0185 27.8029 28.6007 29.4109 30.2324 31.0644 31.8904 32.6497 33.4216 34.2053 35 35.805 36.6197 37.4433 38.1838 38 37 36 35 34 33 32 31 30 29 28 27 26 25 24 23 22 21 20 19 18 17 16 15 14 13 12 11 10 9 8 7 6 5 4 3 2 1 0 1 2 3 4 5 6 7 8 9 10 11 12 13 14 15 16 17 18 19 20 21 22 23 24 25 26 27 28 29 30 31 32 32.9848 33.9559 34.9285 35.9026 36.8782 37.855 38.833 39.8121 40.7922 41.7732 42.7551 43.7379 44.7214 45.7056 46.6905 47.676 48.6621 49.6488 50.636 51.6236 52.6118 53.6004 54.5894 55.5788 56.5685 57.5587 58.5491 59.5399 60.531 61.5224 62.514 63.5059 64.4981 65.4905 66.4831 67.4759 68.469 69.4622 70.4557 71.4493 72.4431 73.437 74.4312 75.4255 76.4199 77.4145 78.4092 79.404 80.399 80 79 78 77 76 75 74 73 72 71 70 69 68 67 66 65 64 63 62 61 60 59 58 57 56 55 54 53 52 51 50 49 48 47 46 45 44 43 42 41 40 39 38 37 36 35 34 33 32 31 30 29 28 27 26 25 24 23 22 21 20 19 18 17 16 15 14 13 12 11 10
35 36 37 38 39 40 41 42 43 44 45 46 47 48 49 50 51 52 53 54 55 56 57 58 59 60 61 62 63 64 65 66 67 68 69 70 71 72 73 74 75 76 77 78 79 80 81 82 83 84 85 86 87 88 89 90 91 92 93 94 94.5939 93.6216 92.6499 91.6788 90.7083 89.7385 88.7694 87.8009 86.8332 85.8662 84.8999 83.9345 82.9699 82.0061 81.0432 80.0812 79.1202 78.1601 77.201 76.243 75.2861 74.3303 73.3757 72.4224 71.4703 70.5195 69.5701 68.6222 67.6757 66.7308 65.7875 64.846 63.9062 62.9682 62.0322 61.0983 60.1664 59.2368 58.3095 57.3847 56.4624 55.5428 54.626 53.7122 52.8015 51.8941 50.9902 50.0899 49.1935 48.3011 47.4131 46.5296 45.6508 44.7772 43.909 43.0465 42.19 41.3401 40.4969 39.6611 38.833 38.0132 37.2022 36.4006 35.609 34.8281 34.0588 33.3017 32.5576 31.8277 31.1127 30.4138 29.7321 29.0689 28.4253 27.8029 27.2029 26.6271 26.0768 25.5539 25.0599 24.5967 24.1661 23.7697 23.4094 23.0868 22.8035 22.561 22.3607 22.2036 22.0907 22.0227 22 22 22.0227 22.0907 22.2036 22.3607 22.561 22.8035 23.0868 23.4094 23.7697 24.1661 24.5967 25.0599 25.5539 26.0768 26.6271 27.2029 27.8029 28.4253 29.0689 29.7321 30.4138 31.1127 31.8277 32.5269 33.2415 33.9411 34.6554 35.3553 36.0694 36.7967 37.5366 38.2884 39.0512 39.8246 40.6079 41.4005 42.2019 43.0116 43.8292 44.5533 45.2548 45.9674 46.669 47.3814 48.1041 48.8365 49.5782 50.3289 49.8197 49.0408 48.2597 47.4342 46.6154 45.793 44.9444 44.1022 43.2666 42.4382 41.6173 40.8044 40 39.2046 38.4187 37.6431 36.8782 36.0555 35.2278 34.4093 33.6006 32.8024 32.0156 31.241 30.4795 29.6816 28.8444 28.0179 27.2029 26.4008 25.5539 24.6982 23.8537 23.0217 22.2036 21.4009 20.6155 19.8494 19.105 18.3576 17.4929 16.6433 15.8114 15 14.2127 13.4164 12.53 11.6619 10.7703 9.84886 8.94427 8.06226 7.2111 6.40312 5.65685 5 4.47214 3.60555 2.82843 2.23607 1.41421 1 0 1 1.41421 2.23607 2.82843 3.60555 4.24264 5 4.24264 3.60555 2.82843 2.23607 1.41421 1 0 0 1 1.41421 2.23607 2.82843 3.16228 3.60555 4.24264 5 5.83095 6.7082 7.2111 7.81025 8.48528 9.21954 9.8995 10.6301 11.3137 12.0416 12.7279 13.4536 14.1421 14.8661 15.5563 16.1245 16.6433 17.2047 16.4012 15.6205 14.7648 13.8924 13.0384 12.2066 11.4018 10.6301 9.8995 9.21954 8.48528 7.61577 6.7082 5.83095 5 4.24264 3.60555 2.82843 2 1 0 0 1 1.41421 2.23607 2.82843 3.60555 4.47214 5.38516 6.32456 7.07107 7.81025 8.60233 9.43398 10.2956 11.1803 12.0416 12.8062 13.6015 14.4222 15.2643 16.1245 16.9706 17.6918 18.4391 19.2094 20 20.8087 21.6333 22.4722 23.3238 24.0832 24.8395 25.6125 26.4008 27.2029 28.0179 28.8444 29.6816 30.4795 31.241 32.0156 32.8024 33.6006 34.4093 35.2278 36.0555 36.7696 37.4833 38 37 36 35 34 33 32 31 30 29 28 27 26 25 24 23 22 21 20 19 18 17 16 15 14 13 12 11 10 9 8 7 6 5 4 3 2 1 0 1 2 3 4 5 6 7 8 9 10 11 12 13 14 15 16 17 18 19 20 21 22 23 24 25 25.9615 26.9258 27.8927 28.8617 29.8329 30.8058 31.7805 32.7567 33.7343 34.7131 35.6931 36.6742 37.6563 38.6394 39.6232 40.6079 41.5933 42.5793 43.566 44.5533 45.5412 46.5296 47.5184 48.5077 49.4975 50.4876 51.4781 52.469 53.4603 54.4518 55.4437 56.4358 57.4282 58.4209 59.4138 60.407 61.4003 62.3939 63.3877 64.3817 65.3758 66.3702 67.3647 68.3593 69.3542 70.3491 71.3442 72.3395 73.3348 74.3303 75.326 76.3217 77.3175 78.3135 79.3095 80.3057 80 79 78 77 76 75 74 73 72 71 70 69 68 67 66 65 64 63 62 61 60 59 58 57 56 55 54 53 52 51 50 49 48 47 46 45 44 43 42 41 40 39 38 37 36 35 34 33 32 31 30 29 28 27 26 25 24 23 22 21 20 19 18 17 16 15 14 13 12 11 10
35 36 37 38 39 40 41 42 43 44 45 46 47 48 49 50 51 52 53 54 55 56 57 58 59 60 61 62 63 64 65 66 67 68 69 70 71 72 73 74 75 76 77 78 79 80 81 82 83 84 85 86 87 88 89 90 91 92 93 94 94.8314 93.8616 92.8924 91.9239 90.956 89.9889 89.0225 88.0568 87.0919 86.1278 85.1645 84.2021 83.2406 82.28 81.3204 80.3617 79.404 78.4474 77.4919 76.5376 75.5844 74.6324 73.6817 72.7324 71.7844 70.8378 69.8928 68.9493 68.0074 67.0671 66.1287 65.192 64.2573 63.3246 62.3939 61.4654 60.5392 59.6154 58.6941 57.7754 56.8595 55.9464 55.0364 54.1295 53.2259 52.3259 51.4296 50.5371 49.6488 48.7647 47.8853 47.0106 46.1411 45.2769 44.4185 43.566 42.72 41.8808 41.0488 40.2244 39.4081 38.6005 37.8021 37.0135 36.2353 35.4683 34.7131 33.9706 33.2415 32.5269 31.8277 31.1448 30.4795 29.8329 29.2062 28.6007 28.0179 27.4591 26.9258 26.4197 25.9422 25.4951 25.0799 24.6982 24.3516 24.0416 23.7697 23.5372 23.3452 23.1948 23.0868 23.0217 23 23 23.0217 23.0868 23.1948 23.3452 23.5372 23.7697 24.0416 24.3516 24.6982 25.0799 25.4951 25.9422 26.4197 26.9258 27.4591 28.0179 28.6007 29.2062 29.8329 30.4795 31.1448 31.8277 32.5269 33.2415 33.9411 34.6554 35.3553 36.0694 36.7696 37.4833 38.2099 38.9487 39.6989 40.4599 41.2311 42.0119 42.8019 43.6005 44.4072 45.2217 45.9674 46.669 47.3814 48.0833 48.7955 49.5177 50.2494 50 49.2037 48.4149 47.634 46.8615 46.0435 45.2217 44.4072 43.566 42.72 41.8808 41.0488 40.2244 39.4081 38.6005 37.8021 37.0135 36.2353 35.4683 34.6699 33.8378 33.0151 32.2025 31.4006 30.6105 29.8329 29.0689 28.3019 27.4591 26.6271 25.807 25 24.1868 23.3238 22.4722 21.6333 20.8087 20 19.2094 18.4391 17.6918 16.9706 16.1245 15.2643 14.4222 13.6015 12.8062 12.0416 11.1803 10.2956 9.43398 8.544 7.61577 6.7082 5.83095 5 4.24264 3.60555 3.16228 2.23607 1.41421 1 0 0 1 2 2.82843 3.60555 4.24264 5 4.24264 3.60555 2.82843 2.23607 1.41421 1 0 0 1 1.41421 2.23607 2.82843 3.60555 4.12311 4.47214 5 5.65685 6.40312 7.2111 8.06226 8.60233 9.21954 9.8995 10.6301 11.3137 12.0416 12.7279 13.4536 14.1421 14.8661 15.5563 16.2788 16.9706 17.4929 17.8045 17 16.1245 15.2643 14.4222 13.6015 12.8062 12.0416 11.3137 10.6301 9.84886 8.94427 8.06226 7.2111 6.40312 5.65685 5 4.12311 3.16228 2.23607 1.41421 1 0 0 1 1.41421 2.23607 3.16228 4.12311 5 5.65685 6.40312 7.2111 8.06226 8.94427 9.84886 10.6301 11.4018 12.2066 13.0384 13.8924 14.7648 15.5563 16.2788 17.0294 17.8045 18.6011 19.4165 20.2485 21.095 21.9317 22.6716 23.4307 24.2074 25 25.807 26.6271 27.4591 28.3019 29.0689 29.8329 30.6105 31.4006 32.2025 33.0151 33.8378 34.6554 35.3553 36.0694 36.7967 37.5366 37 36 35 34 33 32 31 30 29 28 27 26 25 24 23 22 21 20 19 18 17 16 15 14 13 12 11 10 9 8 7 6 5 4 3 2 1 0 1 2 3 4 5 6 7 8 9 10 11 12 13 14 15 16 17 18 18.9737 19.9249 20.8806 21.8403 22.8035 23.7697 24.7386 25.7099 26.6833 27.6586 28.6356 29.6142 30.5941 31.5753 32.5576 33.541 34.5254 35.5106 36.4966 37.4833 38.4708 39.4588 40.4475 41.4367 42.4264 43.4166 44.4072 45.3982 46.3897 47.3814 48.3735 49.366 50.3587 51.3517 52.345 53.3385 54.3323 55.3263 56.3205 57.3149 58.3095 59.3043 60.2993 61.2944 62.2896 63.2851 64.2806 65.2763 66.2722 67.2681 68.2642 69.2604 70.2567 71.2531 72.2496 73.2462 74.2428 75.2396 76.2365 77.2334 78.2304 79.2275 80.2247 80 79 78 77 76 75 74 73 72 71 70 69 68 67 66 65 64 63 62 61 60 59 58 57 56 55 54 53 52 51 50 49 48 47 46 45 44 43 42 41 40 39 38 37 36 35 34 33 32 31 30 29 28 27 26 25 24 23 22 21 20 19 18 17 16 15 14 13 12 11 10
35 36 37 38 39 40 41 42 43 44 45 46 47 48 49 50 51 52 53 54 55 56 57 58 59 60 61 62 63 64 65 66 67 68 69 70 71 72 73 74 75 76 77 78 79 80 81 82 83 84 85 86 87 88 89 90 91 92 93 94 95 94.1116 93.1451 92.1792 91.214 90.2497 89.2861 88.3233 87.3613 86.4002 85.44 84.4808 83.5225 82.5651 81.6088 80.6536 79.6994 78.7464 77.7946 76.844 75.8947 74.9466 74 73.0548 72.111 71.1688 70.2282 69.2892 68.352 67.4166 66.4831 65.5515 64.622 63.6946 62.7694 61.8466 60.9262 60.0083 59.0931 58.1808 57.2713 56.3649 55.4617 54.5619 53.6656 52.7731 51.8845 51 50.1199 49.2443 48.3735 47.5079 46.6476 45.793 44.9444 44.1022 43.2666 42.4382 41.6173 40.8044 40 39.2046 38.4187 37.6431 36.8782 36.1248 35.3836 34.6554 33.9411 33.2415 32.5576 31.8904 31.241 30.6105 30 29.4109 28.8444 28.3019 27.7849 27.2947 26.8328 26.4008 26 25.632 25.2982 25 24.7386 24.5153 24.3311 24.1868 24.0832 24.0208 24 24 24.0208 24.0832 24.1868 24.3311 24.5153 24.7386 25 25.2982 25.632 26 26.4008 26.8328 27.2947 27.7849 28.3019 28.8444 29.4109 30 30.6105 31.241 31.8904 32.5576 33.2415 33.9411 34.6554 35.3553 36.0694 36.7696 37.4833 38.1838 38.8973 39.6232 40.3609 41.1096 41.8688 42.638 43.4166 44.2041 45 45.8039 46.6154 47.3814 48.0833 48.7955 49.4975 50.2096 50.2195 49.4065 48.6004 47.8017 47.0106 46.2277 45.4533 44.6542 43.8292 43.0116 42.19 41.3401 40.4969 39.6611 38.833 38.0132 37.2022 36.4006 35.609 34.8281 34.0588 33.2866 32.45 31.6228 30.8058 30 29.2062 28.4253 27.6586 26.9072 26.0768 25.2389 24.4131 23.6008 22.8035 21.9545 21.095 20.2485 19.4165 18.6011 17.8045 17.0294 16.2788 15.5563 14.7648 13.8924 13.0384 12.2066 11.4018 10.6301 9.84886 8.94427 8.06226 7.2111 6.32456 5.38516 4.47214 3.60555 2.82843 2.23607 2 1 0 0 1 1.41421 2.23607 3.16228 4.12311 4.47214 4.12311 3.60555 2.82843 2.23607 1.41421 1 0 0 1 1.41421 2.23607 2.82843 3.60555 4.24264 5 5.38516 5.83095 6.40312 7.07107 7.81025 8.60233 9.43398 10 10.6301 11.3137 12.0416 12.7279 13.4536 14.1421 14.8661 15.5563 16.2788 16.9706 17.6918 18.3576 18.3576 17.4929 16.6433 15.8114 15 14.2127 13.4536 12.7279 12.0416 11.1803 10.2956 9.43398 8.60233 7.81025 7.07107 6.32456 5.38516 4.47214 3.60555 2.82843 2.23607 1.41421 1 0 0 1 2 2.82843 3.60555 4.24264 5 5.83095 6.7082 7.61577 8.48528 9.21954 10 10.8167 11.6619 12.53 13.4164 14.1421 14.8661 15.6205 16.4012 17.2047 18.0278 18.868 19.7231 20.5183 21.2603 22.0227 22.8035 23.6008 24.4131 25.2389 26.0768 26.9072 27.6586 28.4253 29.2062 30 30.8058 31.6228 32.45 33.2415 33.9411 34.6554 35.3836 36.1248 36.8782 37 36 35 34 33 32 31 30 29 28 27 26 25 24 23 22 21 20 19 18 17 16 15 14 13 12 11 10 9 8 7 6 5 4 3 2 1 0 1 2 3 4 5 6 7 8 9 10 11 12 13 13.9284 14.8661 15.8114 16.7631 17.72 18.6815 19.6469 20.6155 21.587 22.561 23.5372 24.5153 25.4951 26.4764 27.4591 28.4429 29.4279 30.4138 31.4006 32.3883 33.3766 34.3657 35.3553 36.3456 37.3363 38.3275 39.3192 40.3113 41.3038 42.2966 43.2897 44.2832 45.2769 46.2709 47.2652 48.2597 49.2544 50.2494 51.2445 52.2398 53.2353 54.231 55.2268 56.2228 57.2189 58.2151 59.2115 60.208 61.2046 62.2013 63.1981 64.195 65.192 66.1891 67.1863 68.1836 69.1809 70.1783 71.1758 72.1734 73.171 74.1687 75.1665 76.1643 77.1622 78.1601 79.1581 80.1561 80 79 78 77 76 75 74 73 72 71 70 69 68 67 66 65 64 63 62 61 60 59 58 57 56 55 54 53 52 51 50 49 48 47 46 45 44 43 42 41 40 39 38 37 36 35 34 33 32 31 30 29 28 27 26 25 24 23 22 21 20 19 18 17 16 15 14 13 12 11 10
35 36 37 38 39 40 41 42 43 44 45 46 47 48 49 50 51 52 53 54 55 56 57 58 59 60 61 62 63 64 65 66 67 68 69 70 71 72 73 74 75 76 77 78 79 80 81 82 83 84 85 86 87 88 89 90 91 92 93 94 95 94.3716 93.4077 92.4446 91.4822 90.5207 89.56 88.6002 87.6413 86.6833 85.7263 84.7703 83.8153 82.8613 81.9085 80.9568 80.0062 79.0569 78.1089 77.1622 76.2168 75.2728 74.3303 73.3894 72.45 71.5122 70.5762 69.6419 68.7095 67.7791 66.8506 65.9242 65 64.0781 63.1585 62.2415 61.327 60.4152 59.5063 58.6003 57.6975 56.7979 55.9017 55.0091 54.1202 53.2353 52.3546 51.4781 50.6063 49.7393 48.8774 48.0208 47.1699 46.3249 45.4863 44.6542 43.8292 43.0116 42.2019 41.4005 40.6079 39.8246 39.0512 38.2884 37.5366 36.7967 36.0694 35.3553 34.6554 33.9706 33.3017 32.6497 32.0156 31.4006 30.8058 30.2324 29.6816 29.1548 28.6531 28.178 27.7308 27.313 26.9258 26.5707 26.2488 25.9615 25.7099 25.4951 25.318 25.1794 25.0799 25.02 25 25 25.02 25.0799 25.1794 25.318 25.4951 25.7099 25.9615 26.2488 26.5707 26.9258 27.313 27.7308 28.178 28.6531 29.1548 29.6816 30.2324 30.8058 31.4006 32.0156 32.6497 33.3017 33.9706 34.6554 35.3553 36.0694 36.7696 37.4833 38.1838 38.8973 39.598 40.3113 41.0366 41.7732 42.5206 43.2782 44.0454 44.8219 45.607 46.4004 47.2017 48.0104 48.7955 49.4975 50.2096 50.4777 49.6488 48.8262 48.0104 47.2017 46.4004 45.607 44.8219 44.0454 43.2666 42.4382 41.6173 40.8044 39.9625 39.1152 38.2753 37.4433 36.6197 35.805 35 34.2053 33.4216 32.6497 31.8904 31.0644 30.2324 29.4109 28.6007 27.8029 27.0185 26.2488 25.4951 24.6982 23.8537 23.0217 22.2036 21.4009 20.5913 19.7231 18.868 18.0278 17.2047 16.4012 15.6205 14.8661 14.1421 13.4164 12.53 11.6619 10.8167 10 9.21954 8.48528 7.61577 6.7082 5.83095 5 4.12311 3.16228 2.23607 1.41421 1 1 0 1 1.41421 2.23607 2.82843 3.60555 4.24264 3.60555 3.16228 2.82843 2.23607 1.41421 1 0 0 1 1.41421 2.23607 2.82843 3.60555 4.24264 5 5.65685 6.32456 6.7082 7.2111 7.81025 8.48528 9.21954 10 10.8167 11.4018 12.0416 12.7279 13.4536 14.1421 14.8661 15.5563 16.2788 16.9706 17.6918 18.3848 19.105 18.868 18.0278 17.2047 16.4012 15.6205 14.8661 14.1421 13.4164 12.53 11.6619 10.8167 10 9.21954 8.48528 7.61577 6.7082 5.83095 5 4.24264 3.60555 2.82843 2.23607 1.41421 1 0 1 1.41421 2.23607 2.82843 3.60555 4.47214 5.38516 6.32456 7.07107 7.81025 8.60233 9.43398 10.2956 11.1803 12.0416 12.7279 13.4536 14.2127 15 15.8114 16.6433 17.4929 18.3576 19.105 19.8494 20.6155 21.4009 22.2036 23.0217 23.8537 24.6982 25.4951 26.2488 27.0185 27.8029 28.6007 29.4109 30.2324 31.0644 31.8277 32.5269 33.2415 33.9706 34.7131 35.4683 36.2353 37 36 35 34 33 32 31 30 29 28 27 26 25 24 23 22 21 20 19 18 17 16 15 14 13 12 11 10 9 8 7 6 5 4 3 2 1 0 1 2 3 4 5 6 7 8 8.94427 9.84886 10.7703 11.7047 12.6491 13.6015 14.5602 15.5242 16.4924 17.4642 18.4391 19.4165 20.3961 21.3776 22.3607 23.3452 24.3311 25.318 26.3059 27.2947 28.2843 29.2746 30.2655 31.257 32.249 33.2415 34.2345 35.2278 36.2215 37.2156 38.2099 39.2046 40.1995 41.1947 42.19 43.1856 44.1814 45.1774 46.1736 47.1699 48.1664 49.163 50.1597 51.1566 52.1536 53.1507 54.1479 55.1453 56.1427 57.1402 58.1378 59.1354 60.1332 61.131 62.1289 63.1269 64.1249 65.123 66.1211 67.1193 68.1175 69.1158 70.1142 71.1126 72.111 73.1095 74.108 75.1066 76.1052 77.1038 78.1025 79.1012 80.0999 80 79 78 77 76 75 74 73 72 71 70 69 68 67 66 65 64 63 62 61 60 59 58 57 56 55 54 53 52 51 50 49 48 47 46 45 44 43 42 41 40 39 38 37 36 35 34 33 32 31 30 29 28 27 26 25 24 23 22 21 20 19 18 17 16 15 14 13 12 11 10
35 36 37 38 39 40 41 42 43 44 45 46 47 48 49 50 51 52 53 54 55 56 57 58 59 60 61 62 63 64 65 66 67 68 69 70 71 72 73 74 75 76 77 78 79 80 81 82 83 84 85 86 87 88 89 90 91 92 93 94 95 94.6414 93.6803 92.72 91.7606 90.802 89.8443 88.8876 87.9318 86.977 86.0233 85.0706 84.119 83.1685 82.2192 81.2711 80.3243 79.3788 78.4347 77.4919 76.5506 75.6108 74.6726 73.736 72.8011 71.8679 70.9366 70.0071 69.0797 68.1542 67.2309 66.3099 65.3911 64.4748 63.561 62.6498 61.7414 60.8358 59.9333 59.0339 58.1378 57.2451 56.356 55.4707 54.5894 53.7122 52.8394 51.9711 51.1077 50.2494 49.3964 48.5489 47.7074 46.8722 46.0435 45.2217 44.4072 43.6005 42.8019 42.0119 41.2311 40.4599 39.6989 38.9487 38.2099 37.4833 36.7696 36.0694 35.3836 34.7131 34.0588 33.4216 32.8024 32.2025 31.6228 31.0644 30.5287 30.0167 29.5296 29.0689 28.6356 28.2312 27.8568 27.5136 27.2029 26.9258 26.6833 26.4764 26.3059 26.1725 26.0768 26.0192 26 26 26.0192 26.0768 26.1725 26.3059 26.4764 26.6833 26.9258 27.2029 27.5136 27.8568 28.2312 28.6356 29.0689 29.5296 30.0167 30.5287 31.0644 31.6228 32.2025 32.8024 33.4216 34.0588 34.7131 35.3836 36.0694 36.7696 37.4833 38.1838 38.8973 39.598 40.3113 41.0122 41.7253 42.45 43.1856 43.9318 44.6878 45.4533 46.2277 47.0106 47.8017 48.6004 49.4065 50.2096 50.774 49.93 49.0918 48.2597 47.4342 46.6154 45.8039 45 44.2041 43.4166 42.638 41.8688 41.0488 40.2244 39.4081 38.5876 37.7359 36.8917 36.0555 35.2278 34.4093 33.6006 32.8024 32.0156 31.241 30.4795 29.6816 28.8444 28.0179 27.2029 26.4008 25.6125 24.8395 24.0832 23.3238 22.4722 21.6333 20.8087 20 19.2094 18.3576 17.4929 16.6433 15.8114 15 14.2127 13.4536 12.7279 12.0416 11.1803 10.2956 9.43398 8.60233 7.81025 7.07107 6.32456 5.38516 4.47214 3.60555 2.82843 2 1 0 0 0 1 2 2.82843 3.60555 4.24264 3.60555 2.82843 2.23607 2 1.41421 1 0 0 1 1.41421 2.23607 2.82843 3.60555 4.24264 5 5.65685 6.40312 7.07107 7.61577 8.06226 8.60233 9.21954 9.8995 10.6301 11.4018 12.2066 12.8062 13.4536 14.1421 14.8661 15.5563 16.2788 16.9706 17.6918 18.3848 19.105 19.799 19.4165 18.6011 17.8045 17.0294 16.2788 15.5563 14.7648 13.8924 13.0384 12.2066 11.4018 10.6301 9.84886 8.94427 8.06226 7.2111 6.40312 5.65685 5 4.24264 3.60555 2.82843 2 1 0 0 1 1.41421 2.23607 3.16228 4.12311 5 5.65685 6.40312 7.2111 8.06226 8.94427 9.84886 10.6301 11.3137 12.0416 12.8062 13.6015 14.4222 15.2643 16.1245 16.9706 17.6918 18.4391 19.2094 20 20.8087 21.6333 22.4722 23.3238 24.0832 24.8395 25.6125 26.4008 27.2029 28.0179 28.8444 29.6816 30.4138 31.1127 31.8277 32.5576 33.3017 34.0588 34.8281 35.609 36.4006 36 35 34 33 32 31 30 29 28 27 26 25 24 23 22 21 20 19 18 17 16 15 14 13 12 11 10 9 8 7 6 5 4 3 2 1 0 1 2 3 4 5 5.83095 6.7082 7.61577 8.544 9.48683 10.4403 11.4018 12.3693 13.3417 14.3178 15.2971 16.2788 17.2627 18.2483 19.2354 20.2237 21.2132 22.2036 23.1948 24.1868 25.1794 26.1725 27.1662 28.1603 29.1548 30.1496 31.1448 32.1403 33.1361 34.1321 35.1283 36.1248 37.1214 38.1182 39.1152 40.1123 41.1096 42.107 43.1045 44.1022 45.0999 46.0977 47.0956 48.0937 49.0918 50.0899 51.0882 52.0865 53.0848 54.0833 55.0818 56.0803 57.0789 58.0775 59.0762 60.075 61.0737 62.0725 63.0714 64.0703 65.0692 66.0681 67.0671 68.0661 69.0652 70.0643 71.0634 72.0625 73.0616 74.0608 75.06 76.0592 77.0584 78.0577 79.0569 80.0562 80 79 78 77 76 75 74 73 72 71 70 69 68 67 66 65 64 63 62 61 60 59 58 57 56 55 54 53 52 51 50 49 48 47 46 45 44 43 42 41 40 39 38 37 36 35 34 33 32 31 30 29 28 27 26 25 24 23 22 21 20 19 18 17 16 15 14 13 12 11 10
35 36 37 38 39 40 41 42 43 44 45 46 47 48 49 50 51 52 53 54 55 56 57 58 59 60 61 62 63 64 65 66 67 68 69 70 71 72 73 74 75 76 77 78 79 80 81 82 83 84 85 86 87 88 89 90 91 92 93 94 95 94.921 93.9628 93.0054 92.0489 91.0934 90.1388 89.1852 88.2327 87.2812 86.3308 85.3815 84.4334 83.4865 82.5409 81.5966 80.6536 79.712 78.7718 77.8332 76.896 75.9605 75.0267 74.0945 73.1642 72.2357 71.3092 70.3847 69.4622 68.542 67.624 66.7083 65.7951 64.8845 63.9766 63.0714 62.1691 61.2699 60.3738 59.4811 58.5918 57.7062 56.8243 55.9464 55.0727 54.2033 53.3385 52.4786 51.6236 50.774 49.93 49.0918 48.2597 47.4342 46.6154 45.8039 45 44.2041 43.4166 42.638 41.8688 41.1096 40.3609 39.6232 38.8973 38.1838 37.4833 36.7967 36.1248 35.4683 34.8281 34.2053 33.6006 33.0151 32.45 31.9061 31.3847 30.8869 30.4138 29.9666 29.5466 29.1548 28.7924 28.4605 28.1603 27.8927 27.6586 27.4591 27.2947 27.1662 27.074 27.0185 27 27 27.0185 27.074 27.1662 27.2947 27.4591 27.6586 27.8927 28.1603 28.4605 28.7924 29.1548 29.5466 29.9666 30.4138 30.8869 31.3847 31.9061 32.45 33.0151 33.6006 34.2053 34.8281 35.4683 36.1248 36.7967 37.4833 38.1838 38.8973 39.598 40.3113 41.0122 41.7253 42.4264 43.1393 43.8634 44.5982 45.3431 46.0977 46.8615 47.634 48.4149 49.2037 50 50.8035 50.2195 49.3964 48.5489 47.7074 46.8722 46.0435 45.2217 44.4072 43.6005 42.8019 42.0119 41.2311 40.4599 39.6611 38.833 38.0132 37.2022 36.3593 35.5106 34.6699 33.8378 33.0151 32.2025 31.4006 30.6105 29.8329 29.0689 28.3019 27.4591 26.6271 25.807 25 24.2074 23.4307 22.6716 21.9317 21.095 20.2485 19.4165 18.6011 17.8045 17 16.1245 15.2643 14.4222 13.6015 12.8062 12.0416 11.3137 10.6301 9.84886 8.94427 8.06226 7.2111 6.40312 5.65685 5 4.12311 3.16228 2.23607 1.41421 1 0 0 1 1.41421 2.23607 3.16228 4.12311 3.60555 2.82843 2.23607 1.41421 1 1 0 0 1 1.41421 2.23607 2.82843 3.60555 4.24264 5 5.65685 6.40312 7.07107 7.81025 8.48528 8.94427 9.43398 10 10.6301 11.3137 12.0416 12.8062 13.6015 14.2127 14.8661 15.5563 16.2788 16.9706 17.6918 18.3848 19.105 19.799 20.5183 20 19.2094 18.4391 17.6918 16.9706 16.1245 15.2643 14.4222 13.6015 12.8062 12.0416 11.1803 10.2956 9.43398 8.60233 7.81025 7.07107 6.40312 5.65685 5 4.12311 3.16228 2.23607 1.41421 1 0 0 1 2 2.82843 3.60555 4.24264 5 5.83095 6.7082 7.61577 8.48528 9.21954 9.8995 10.6301 11.4018 12.2066 13.0384 13.8924 14.7648 15.5563 16.2788 17.0294 17.8045 18.6011 19.4165 20.2485 21.095 21.9317 22.6716 23.4307 24.2074 25 25.807 26.6271 27.4591 28.2843 29 29.6985 30.4138 31.1448 31.8904 32.6497 33.4216 34.2053 35 35.805 36 35 34 33 32 31 30 29 28 27 26 25 24 23 22 21 20 19 18 17 16 15 14 13 12 11 10 9 8 7 6 5 4 3 2 1 0 1 2 2.82843 3.60555 4.47214 5.38516 6.32456 7.28011 8.24621 9.21954 10.198 11.1803 12.1655 13.1529 14.1421 15.1327 16.1245 17.1172 18.1108 19.105 20.0998 21.095 22.0907 23.0868 24.0832 25.0799 26.0768 27.074 28.0713 29.0689 30.0666 31.0644 32.0624 33.0606 34.0588 35.0571 36.0555 37.054 38.0526 39.0512 40.05 41.0488 42.0476 43.0465 44.0454 45.0444 46.0435 47.0425 48.0416 49.0408 50.04 51.0392 52.0384 53.0377 54.037 55.0364 56.0357 57.0351 58.0345 59.0339 60.0333 61.0328 62.0322 63.0317 64.0312 65.0308 66.0303 67.0298 68.0294 69.029 70.0286 71.0282 72.0278 73.0274 74.027 75.0267 76.0263 77.026 78.0256 79.0253 80.025 80 79 78 77 76 75 74 73 72 71 70 69 68 67 66 65 64 63 62 61 60 59 58 57 56 55 54 53 52 51 50 49 48 47 46 45 44 43 42 41 40 39 38 37 36 35 34 33 32 31 30 29 28 27 26 25 24 23 22 21 20 19 18 17 16 15 14 13 12 11 10
35 36 37 38 39 40 41 42 43 44 45 46 47 48 49 50 51 52 53 54 55 56 57 58 59 60 61 62 63 64 65 66 67 68 69 70 71 72 73 74 75 76 77 78 79 80 81 82 83 84 85 86 87 88 89 90 91 92 93 94 95 95.2103 94.255 93.3006 92.3472 91.3947 90.4434 89.493 88.5438 87.5957 86.6487 85.703 84.7585 83.8153 82.8734 81.9329 80.9938 80.0562 79.1202 78.1857 77.2528 76.3217 75.3923 74.4648 73.5391 72.6154 71.6938 70.7743 69.857 68.942 68.0294 67.1193 66.2118 65.307 64.405 63.5059 62.6099 61.7171 60.8276 59.9416 59.0593 58.1808 57.3062 56.4358 55.5698 54.7083 53.8516 53 52.1536 51.3128 50.4777 49.6488 48.8262 48.0104 47.2017 46.4004 45.607 44.8219 44.0454 43.2782 42.5206 41.7732 41.0366 40.3113 39.598 38.8973 38.2099 37.5366 36.8782 36.2353 35.609 35 34.4093 33.8378 33.2866 32.7567 32.249 31.7648 31.305 30.8707 30.4631 30.0832 29.7321 29.4109 29.1204 28.8617 28.6356 28.4429 28.2843 28.1603 28.0713 28.0179 28 28 28.0179 28.0713 28.1603 28.2843 28.4429 28.6356 28.8617 29.1204 29.4109 29.7321 30.0832 30.4631 30.8707 31.305 31.7648 32.249 32.7567 33.2866 33.8378 34.4093 35 35.609 36.2353 36.8782 37.5366 38.2099 38.8973 39.598 40.3113 41.0122 41.7253 42.4264 43.1393 43.8406 44.5533 45.2769 46.0109 46.7547 47.5079 48.2701 49.0408 49.8197 50.6063 50.4777 49.6488 48.8262 48.0104 47.1699 46.3249 45.4863 44.6542 43.8292 43.0116 42.2019 41.4005 40.6079 39.8246 39.0512 38.2753 37.4433 36.6197 35.805 34.9857 34.1321 33.2866 32.45 31.6228 30.8058 30 29.2062 28.4253 27.6586 26.9072 26.0768 25.2389 24.4131 23.6008 22.8035 22.0227 21.2603 20.5183 19.7231 18.868 18.0278 17.2047 16.4012 15.6205 14.7648 13.8924 13.0384 12.2066 11.4018 10.6301 9.8995 9.21954 8.48528 7.61577 6.7082 5.83095 5 4.24264 3.60555 2.82843 2 1 0 0 1 1.41421 2.23607 2.82843 3.60555 3.60555 2.82843 2.23607 1.41421 1 0 0 0 1 1.41421 2.23607 2.82843 3.60555 4.24264 5 5.65685 6.40312 7.07107 7.81025 8.48528 9.21954 9.84886 10.2956 10.8167 11.4018 12.0416 12.7279 13.4536 14.2127 15 15.6205 16.2788 16.9706 17.6918 18.3848 19.105 19.799 20.5183 21.2132 20.6155 19.8494 19.105 18.3576 17.4929 16.6433 15.8114 15 14.2127 13.4164 12.53 11.6619 10.8167 10 9.21954 8.48528 7.81025 7.07107 6.32456 5.38516 4.47214 3.60555 2.82843 2.23607 1.41421 1 0 1 1.41421 2.23607 2.82843 3.60555 4.47214 5.38516 6.32456 7.07107 7.81025 8.48528 9.21954 10 10.8167 11.6619 12.53 13.4164 14.1421 14.8661 15.6205 16.4012 17.2047 18.0278 18.868 19.7231 20.5183 21.2603 22.0227 22.8035 23.6008 24.4131 25.2389 26.0768 26.8701 27.5862 28.2843 29 29.7321 30.4795 31.241 32.0156 32.8024 33.6006 34.4093 35.2278 36 35 34 33 32 31 30 29 28 27 26 25 24 23 22 21 20 19 18 17 16 15 14 13 12 11 10 9 8 7 6 5 4 3 2 1 0 1 1.41421 2.23607 3.16228 4.12311 5.09902 6.08276 7.07107 8.06226 9.05539 10.0499 11.0454 12.0416 13.0384 14.0357 15.0333 16.0312 17.0294 18.0278 19.0263 20.025 21.0238 22.0227 23.0217 24.0208 25.02 26.0192 27.0185 28.0179 29.0172 30.0167 31.0161 32.0156 33.0151 34.0147 35.0143 36.0139 37.0135 38.0132 39.0128 40.0125 41.0122 42.0119 43.0116 44.0114 45.0111 46.0109 47.0106 48.0104 49.0102 50.01 51.0098 52.0096 53.0094 54.0093 55.0091 56.0089 57.0088 58.0086 59.0085 60.0083 61.0082 62.0081 63.0079 64.0078 65.0077 66.0076 67.0075 68.0074 69.0072 70.0071 71.007 72.0069 73.0069 74.0068 75.0067 76.0066 77.0065 78.0064 79.0063 80.0062 80 79 78 77 76 75 74 73 72 71 70 69 68 67 66 65 64 63 62 61 60 59 58 57 56 55 54 53 52 51 50 49 48 47 46 45 44 43 42 41 40 39 38 37 36 35 34 33 32 31 30 29 28 27 26 25 24 23 22 21 20 19 18 17 16 15 14 13 12 11 10
35 36 37 38 39 40 41 42 43 44 45 46 47 48 49 50 51 52 53 54 55 56 57 58 59 60 61 62 63 64 65 66 67 68 69 70 71 72 73 74 75 76 77 78 79 80 81 82 83 84 85 86 87 88 89 90 91 92 93 94 95 95.5092 94.5569 93.6056 92.6553 91.7061 90.7579 89.8109 88.8651 87.9204 86.977 86.0349 85.0941 84.1546 83.2166 82.28 81.3449 80.4114 79.4796 78.5493 77.6209 76.6942 75.7694 74.8465 73.9256 73.0069 72.0902 71.1758 70.2638 69.3542 68.4471 67.5426 66.6408 65.7419 64.846 63.9531 63.0635 62.1772 61.2944 60.4152 59.5399 58.6686 57.8014 56.9386 56.0803 55.2268 54.3783 53.535 52.6973 51.8652 51.0392 50.2195 49.4065 48.6004 47.8017 47.0106 46.2277 45.4533 44.6878 43.9318 43.1856 42.45 41.7253 41.0122 40.3113 39.6232 38.9487 38.2884 37.6431 37.0135 36.4006 35.805 35.2278 34.6699 34.1321 33.6155 33.121 32.6497 32.2025 31.7805 31.3847 31.0161 30.6757 30.3645 30.0832 29.8329 29.6142 29.4279 29.2746 29.1548 29.0689 29.0172 29 29 29.0172 29.0689 29.1548 29.2746 29.4279 29.6142 29.8329 30.0832 30.3645 30.6757 31.0161 31.3847 31.7805 32.2025 32.6497 33.121 33.6155 34.1321 34.6699 35.2278 35.805 36.4006 37.0135 37.6431 38.2884 38.9487 39.6232 40.3113 41.0122 41.7253 42.4264 43.1393 43.8406 44.5533 45.2548 45.9674 46.6905 47.4236 48.1664 48.9183 49.679 50.448 50.774 49.93 49.0918 48.2597 47.4342 46.6154 45.793 44.9444 44.1022 43.2666 42.4382 41.6173 40.8044 40 39.2046 38.4187 37.6431 36.8782 36.0555 35.2278 34.4093 33.6006 32.7567 31.9061 31.0644 30.2324 29.4109 28.6007 27.8029 27.0185 26.2488 25.4951 24.6982 23.8537 23.0217 22.2036 21.4009 20.6155 19.8494 19.105 18.3576 17.4929 16.6433 15.8114 15 14.2127 13.4164 12.53 11.6619 10.8167 10 9.21954 8.48528 7.81025 7.07107 6.32456 5.38516 4.47214 3.60555 2.82843 2.23607 1.41421 1 0 1 1.41421 2.23607 2.82843 3.60555 3.60555 2.82843 2.23607 1.41421 1 0 0 1 1 1.41421 2.23607 2.82843 3.60555 4.24264 5 5.65685 6.40312 7.07107 7.81025 8.48528 9.21954 9.8995 10.6301 11.1803 11.6619 12.2066 12.8062 13.4536 14.1421 14.8661 15.6205 16.4012 17.0294 17.6918 18.3848 19.105 19.799 20.5183 21.2132 21.9317 21.2603 20.5183 19.7231 18.868 18.0278 17.2047 16.4012 15.6205 14.7648 13.8924 13.0384 12.2066 11.4018 10.6301 9.8995 9.21954 8.48528 7.61577 6.7082 5.83095 5 4.24264 3.60555 2.82843 2 1 0 0 1 1.41421 2.23607 3.16228 4.12311 5 5.65685 6.40312 7.07107 7.81025 8.60233 9.43398 10.2956 11.1803 12.0416 12.7279 13.4536 14.2127 15 15.8114 16.6433 17.4929 18.3576 19.105 19.8494 20.6155 21.4009 22.2036 23.0217 23.8537 24.6982 25.4558 26.1725 26.8701 27.5862 28.3196 29.0689 29.8329 30.6105 31.4006 32.2025 33.0151 33.8378 34.6699 35.5106 35 34 33 32 31 30 29 28 27 26 25 24 23 22 21 20 19 18 17 16 15 14 13 12 11 10 9 8 7 6 5 4 3 2 1 0 0 1 2 3 4 5 6 7 8 9 10 11 12 13 14 15 16 17 18 19 20 21 22 23 24 25 26 27 28 29 30 31 32 33 34 35 36 37 38 39 40 41 42 43 44 45 46 47 48 49 50 51 52 53 54 55 56 57 58 59 60 61 62 63 64 65 66 67 68 69 70 71 72 73 74 75 76 77 78 79 80 80 79 78 77 76 75 74 73 72 71 70 69 68 67 66 65 64 63 62 61 60 59 58 57 56 55 54 53 52 51 50 49 48 47 46 45 44 43 42 41 40 39 38 37 36 35 34 33 32 31 30 29 28 27 26 25 24 23 22 21 20 19 18 17 16 15 14 13 12 11 10
35 36 37 38 39 40 41 42 43 44 45 46 47 48 49 50 51 52 53 54 55 56 57 58 59 60 61 62 63 64 65 66 67 68 69 70 71 72 73 74 75 76 77 78 79 80 81 82 83 84 85 86 87 88 89 90 91 92 93 94 95 95.8175 94.8683 93.9202 92.9731 92.0272 91.0824 90.1388 89.1964 88.2553 87.3155 86.3771 85.44 84.5044 83.5703 82.6378 81.7068 80.7775 79.8499 78.924 78 77.0779 76.1577 75.2396 74.3236 73.4098 72.4983 71.5891 70.6824 69.7782 68.8767 67.9779 67.082 66.1891 65.2993 64.4127 63.5295 62.6498 61.7738 60.9016 60.0333 59.1693 58.3095 57.4543 56.6039 55.7584 54.9181 54.0833 53.2541 52.4309 51.614 50.8035 50 49.2037 48.4149 47.634 46.8615 46.0977 45.3431 44.5982 43.8634 43.1393 42.4264 41.7253 41.0366 40.3609 39.6989 39.0512 38.4187 37.8021 37.2022 36.6197 36.0555 35.5106 34.9857 34.4819 34 33.541 33.1059 32.6956 32.311 31.9531 31.6228 31.3209 31.0483 30.8058 30.5941 30.4138 30.2655 30.1496 30.0666 30.0167 30 30 30.0167 30.0666 30.1496 30.2655 30.4138 30.5941 30.8058 31.0483 31.3209 31.6228 31.9531 32.311 32.6956 33.1059 33.541 34 34.4819 34.9857 35.5106 36.0555 36.6197 37.2022 37.8021 38.4187 39.0512 39.6989 40.3609 41.0366 41.7253 42.4264 43.1393 43.8406 44.5533 45.2548 45.9674 46.669 47.3814 48.1041 48.8365 49.5782 50.3289 51.0882 50.2494 49.3964 48.5489 47.7074 46.8722 46.0435 45.2217 44.4072 43.566 42.72 41.8808 41.0488 40.2244 39.4081 38.6005 37.8021 37.0135 36.2353 35.4683 34.6699 33.8378 33.0151 32.2025 31.3847 30.5287 29.6816 28.8444 28.0179 27.2029 26.4008 25.6125 24.8395 24.0832 23.3238 22.4722 21.6333 20.8087 20 19.2094 18.4391 17.6918 16.9706 16.1245 15.2643 14.4222 13.6015 12.8062 12.0416 11.1803 10.2956 9.43398 8.60233 7.81025 7.07107 6.40312 5.65685 5 4.12311 3.16228 2.23607 1.41421 1 0 0 1 2 2.82843 3.60555 3.60555 2.82843 2.23607 1.41421 1 0 0 0 1 2 2.23607 2.82843 3.60555 4.24264 5 5.65685 6.40312 7.07107 7.81025 8.48528 9.21954 9.8995 10.6301 11.3137 12.0416 12.53 13.0384 13.6015 14.2127 14.8661 15.5563 16.2788 17.0294 17.8045 18.4391 19.105 19.799 20.5183 21.2132 21.9317 22.6274 21.9317 21.095 20.2485 19.4165 18.6011 17.8045 17 16.1245 15.2643 14.4222 13.6015 12.8062 12.0416 11.3137 10.6301 9.84886 8.94427 8.06226 7.2111 6.40312 5.65685 5 4.12311 3.16228 2.23607 1.41421 1 0 0 1 2 2.82843 3.60555 4.24264 5 5.65685 6.40312 7.2111 8.06226 8.94427 9.84886 10.6301 11.3137 12.0416 12.8062 13.6015 14.4222 15.2643 16.1245 16.9706 17.6918 18.4391 19.2094 20 20.8087 21.6333 22.4722 23.3238 24.0416 24.7588 25.4558 26.1725 26.9072 27.6586 28.4253 29.2062 30 30.8058 31.6228 32.45 33.2866 34.1321 34.9857 35.0143 34.0147 33.0151 32.0156 31.0161 30.0167 29.0172 28.0179 27.0185 26.0192 25.02 24.0208 23.0217 22.0227 21.0238 20.025 19.0263 18.0278 17.0294 16.0312 15.0333 14.0357 13.0384 12.0416 11.0454 10.0499 9.05539 8.06226 7.07107 6.08276 5.09902 4.12311 3.16228 2.23607 1.41421 1 0 1 2 3 4 5 6 7 8 9 10 11 12 13 14 15 16 17 18 19 20 21 22 23 24 25 26 27 28 29 30 31 32 33 34 35 36 37 38 39 40 41 42 43 44 45 46 47 48 49 50 51 52 53 54 55 56 57 58 59 60 61 62 63 64 65 66 67 68 69 70 71 72 73 74 75 76 77 78 79 80 80 79 78 77 76 75 74 73 72 71 70 69 68 67 66 65 64 63 62 61 60 59 58 57 56 55 54 53 52 51 50 49 48 47 46 45 44 43 42 41 40 39 38 37 36 35 34 33 32 31 30 29 28 27 26 25 24 23 22 21 20 19 18 17 16 15 14 13 12 11 10
35 36 37 38 39 40 41 42 43 44 45 46 47 48 49 50 51 52 53 54 55 56 57 58 59 60 61 62 63 64 65 66 67 68 69 70 71 72 73 74 75 76 77 78 79 80 81 82 83 84 85 86 87 88 89 90 91 92 93 94 95 96 95.1893 94.2444 93.3006 92.358 91.4166 90.4765 89.5377 88.6002 87.6641 86.7295 85.7963 84.8646 83.9345 83.006 82.0792 81.1542 80.2309 79.3095 78.3901 77.4726 76.5572 75.6439 74.7329 73.8241 72.9178 72.0139 71.1126 70.214 69.3181 68.4251 67.5352 66.6483 65.7647 64.8845 64.0078 63.1348 62.2656 61.4003 60.5392 59.6825 58.8303 57.9828 57.1402 56.3028 55.4707 54.6443 53.8238 53.0094 52.2015 51.4004 50.6063 49.8197 49.0408 48.2701 47.5079 46.7547 46.0109 45.2769 44.5533 43.8406 43.1393 42.45 41.7732 41.1096 40.4599 39.8246 39.2046 38.6005 38.0132 37.4433 36.8917 36.3593 35.8469 35.3553 34.8855 34.4384 34.0147 33.6155 33.2415 32.8938 32.573 32.28 32.0156 31.7805 31.5753 31.4006 31.257 31.1448 31.0644 31.0161 31 31 31.0161 31.0644 31.1448 31.257 31.4006 31.5753 31.7805 32.0156 32.28 32.573 32.8938 33.2415 33.6155 34.0147 34.4384 34.8855 35.3553 35.8469 36.3593 36.8917 37.4433 38.0132 38.6005 39.2046 39.8246 40.4599 41.1096 41.7732 42.45 43.1393 43.8406 44.5533 45.2548 45.9674 46.669 47.3814 48.0833 48.7955 49.5177 50.2494 50.9902 50.6063 49.7393 48.8774 48.0208 47.1699 46.3249 45.4863 44.6542 43.8292 43.0116 42.19 41.3401 40.4969 39.6611 38.833 38.0132 37.2022 36.4006 35.609 34.8281 34.0588 33.2866 32.45 31.6228 30.8058 30 29.1548 28.3019 27.4591 26.6271 25.807 25 24.2074 23.4307 22.6716 21.9317 21.095 20.2485 19.4165 18.6011 17.8045 17.0294 16.2788 15.5563 14.7648 13.8924 13.0384 12.2066 11.4018 10.6301 9.84886 8.94427 8.06226 7.2111 6.40312 5.65685 5 4.24264 3.60555 2.82843 2 1 0 0 1 1.41421 2.23607 3.16228 3.60555 2.82843 2.23607 1.41421 1 0 0 1 1 1.41421 2.23607 3.16228 3.60555 4.24264 5 5.65685 6.40312 7.07107 7.81025 8.48528 9.21954 9.8995 10.6301 11.3137 12.0416 12.7279 13.4164 13.8924 14.4222 15 15.6205 16.2788 16.9706 17.6918 18.4391 19.2094 19.8494 20.5183 21.2132 21.9317 22.6274 23.3238 22.4722 21.6333 20.8087 20 19.2094 18.3576 17.4929 16.6433 15.8114 15 14.2127 13.4536 12.7279 12.0416 11.1803 10.2956 9.43398 8.60233 7.81025 7.07107 6.32456 5.38516 4.47214 3.60555 2.82843 2.23607 1.41421 1 0 1 1.41421 2.23607 2.82843 3.60555 4.24264 5 5.83095 6.7082 7.61577 8.48528 9.21954 9.8995 10.6301 11.4018 12.2066 13.0384 13.8924 14.7648 15.5563 16.2788 17.0294 17.8045 18.6011 19.4165 20.2485 21.095 21.9317 22.6274 23.3452 24.0416 24.7588 25.4951 26.2488 27.0185 27.8029 28.6007 29.4109 30.2324 31.0644 31.9061 32.7567 33.6006 34.4093 35.0571 34.0588 33.0606 32.0624 31.0644 30.0666 29.0689 28.0713 27.074 26.0768 25.0799 24.0832 23.0868 22.0907 21.095 20.0998 19.105 18.1108 17.1172 16.1245 15.1327 14.1421 13.1529 12.1655 11.1803 10.198 9.21954 8.24621 7.28011 6.32456 5.38516 4.47214 3.60555 2.82843 2 1 0 1 2 3 4 5 6 7 8 9 10 11 12 13 14 15 16 17 18 19 20 21 22 23 24 25 26 27 28 29 30 31 32 33 34 35 36 37 38 39 40 41 42 43 44 45 46 47 48 49 50 51 52 53 54 55 56 57 58 59 60 61 62 63 64 65 66 67 68 69 70 71 72 73 74 75 76 77 78 79 80 80 79 78 77 76 75 74 73 72 71 70 69 68 67 66 65 64 63 62 61 60 59 58 57 56 55 54 53 52 51 50 49 48 47 46 45 44 43 42 41 40 39 38 37 36 35 34 33 32 31 30 29 28 27 26 25 24 23 22 21 20 19 18 17 16 15 14 13 12 11 10
