0 1 2 3 4 5 6 7 8 9 10 11 12 13 14 15 16 17 18 19 20 21 22 23 24 25 26 27 28 29 30 31 32 33 34 35 36 37 38 39 40 41 42 43 44 45 46 47 48 49 50 51 52 53 54 55 54.5619 54.1295 53.7122 53.3104 52.8015 52.2015 51.614 51.0392 50.4777 49.93 49.3964 48.8774 48.3735 47.8853 47.4131 46.9574 46.5188 46.0977 45.6946 45.31 44.9444 44.5982 44.2719 43.9659 43.6807 43.382 42.9535 42.5441 42.1545 41.7852 41.4367 41.0488 40.4969 39.9625 39.4462 38.9487 38.4708 38.0132 37.4433 36.8917 36.3593 35.8469 35.3553 34.8855 34.4093 33.8378 33.2866 32.7567 32.249 31.7648 31.305 30.8707 30.4631 30.0832 29.7321 29.4109 29.1204 28.8617 28.6356 28.4429 28.2843 28.1603 28.0713 28.0179 28 28 28 27.8927 27.6586 27.4591 27.2947 27.1662 27.074 27.0185 27 27 26.9258 26.5707 26.2488 25.9615 25.7099 25.4951 25.318 25.1794 25.0799 25 24.7386 24.5153 24.3311 24.1868 24.0832 24.0208 24 24 24 24 24 24 24 24 24.0208 24.0832 24.1868 24.1868 24.0832 24.0208 24 24 24 24 24 24 24 24.0208 24.0832 24.1868 24.3311 24.5153 24.7386 25 24.7386 24.5153 24.3311 24.1868 24.0832 24.0208 24 24 24 24 24.0208 24.0832 24.1868 24.3311 24.5153 24.3516 24.0416 23.7697 23.5372 23.3452 23.1948 23.0868 23.0217 23 23 23 23 23 23 23.0217 23.0868 23.1948 23.3452 23.5372 23.7697 24.0416 24.1868 24.0416 23.7697 23.5372 23.3452 23.1948 23.0868 23.0217 23 23 23 23 23 23 23 23 23 23 23 23 23 23 23 23 23 23 23 22.8035 22.561 22.3607 22.2036 22.0907 22.0227 22 21.8403 21.587 21.3776 21.2132 21.095 21.0238 20.8806 20.6155 20.3961 20.1246 19.6977 19.3132 18.9737 18.6815 18.4391 18.2483 18.0278 17.4929 17 16.5529 16.1245 15.6525 15.2315 14.8661 14.5602 14.3178 14.1421 13.4536 12.7279 12.0416 11.3137 10.6301 10 9.43398 8.94427 8.544 8.06226 7.61577 7.28011 7.07107 7 7 7 6 5 4 3 2 1 0 0 0 0 0 1 2 3 4 5 5.65685 6.40312 7.2111 8.06226 8.94427 9.84886 10.7703 11.7047 12.6491 13.6015 14.5602 15.5242 16.4924 17.4642 17.088 16.1555 15.2315 14.3178 13.4164 12.53 11.6619 10.8167 10 9.21954 8.48528 7.81025 7.2111 6.7082 6.32456 6.08276 6 6 6.08276 6.32456 6.7082 7.2111 7.81025 8.48528 9.21954 9.8995 10.6301 11.4018 12.2066 13.0384 13.8924 14.7648 15.6525 16.5529 17.4642 18.3576 19.2354 20.1246 21.0238 21.9317 22.8473 23.7697 24.6982 25.632 26.5707 27.5136 28.4605 29.4109 30.3645 31 30 29 28 27 26 25 24 23 22 21 20 19 18 17 16 15 14 13 12 11 10 9 8 7 6 5 4 3 2 1 0
0 1 2 3 4 5 6 7 8 9 10 11 12 13 14 15 16 17 18 19 20 21 22 23 24 25 26 27 28 29 30 31 32 33 34 35 36 37 38 39 40 41 42 43 44 45 46 47 48 49 50 51 52 53 54 54.1202 53.6656 53.2259 52.8015 52.3927 52 51.4004 50.8035 50.2195 49.6488 49.0918 48.5489 48.0208 47.5079 47.0106 46.5296 46.0652 45.618 45.1885 44.7772 44.3847 44.0114 43.6578 43.3244 43.0116 42.72 42.45 42.0476 41.6293 41.2311 40.8534 40.4969 40.1622 39.6611 39.1152 38.5876 38.0789 37.5899 37.1214 36.6197 36.0555 35.5106 34.9857 34.4819 34 33.541 33.0151 32.45 31.9061 31.3847 30.8869 30.4138 29.9666 29.5466 29.1548 28.7924 28.4605 28.1603 27.8927 27.6586 27.4591 27.2947 27.1662 27.074 27.0185 27 27 27 26.9258 26.6833 26.4764 26.3059 26.1725 26.0768 26.0192 26 26 26 25.632 25.2982 25 24.7386 24.5153 24.3311 24.1868 24.0832 24.0208 23.7697 23.5372 23.3452 23.1948 23.0868 23.0217 23 23 23 23 23 23 23 23 23.0217 23.0868 23.1948 23.1948 23.0868 23.0217 23 23 23 23 23 23 23 23.0217 23.0868 23.1948 23.3452 23.5372 23.7697 24 23.7697 23.5372 23.3452 23.1948 23.0868 23.0217 23 23 23 23 23.0217 23.0868 23.1948 23.3452 23.5372 23.4094 23.0868 22.8035 22.561 22.3607 22.2036 22.0907 22.0227 22 22 22 22 22 22 22.0227 22.0907 22.2036 22.3607 22.561 22.8035 23.0868 23.1948 23.0868 22.8035 22.561 22.3607 22.2036 22.0907 22.0227 22 22 22 22 22 22 22 22 22 22 22 22 22 22 22 22 22 22 22 21.8403 21.587 21.3776 21.2132 21.095 21.0238 21 20.8806 20.6155 20.3961 20.2237 20.0998 20.025 19.9249 19.6469 19.4165 19.2354 18.7883 18.3848 18.0278 17.72 17.4642 17.2627 17.1172 16.6433 16.1245 15.6525 15.2315 14.7648 14.3178 13.9284 13.6015 13.3417 13.1529 12.7279 12.0416 11.3137 10.6301 9.8995 9.21954 8.60233 8.06226 7.61577 7.2111 6.7082 6.32456 6.08276 6 6 6.08276 6 5 4 3 2 1 0 0 1 1 1 1.41421 2.23607 3.16228 3.60555 4.24264 5 5.83095 6.7082 7.61577 8.544 9.48683 10.4403 11.4018 12.3693 13.3417 14.3178 15.2971 16.2788 17.2627 17.4642 16.5529 15.6525 14.7648 13.8924 13.0384 12.2066 11.4018 10.6301 9.8995 9.21954 8.60233 8.06226 7.61577 7.28011 7.07107 7 7 7.07107 7.28011 7.61577 8.06226 8.60233 9.21954 9.8995 10.6301 11.3137 12.0416 12.8062 13.6015 14.4222 15.2643 16.1245 17 17.8885 18.7883 19.6977 20.5913 21.4709 22.3607 23.2594 24.1661 25.0799 26 26.9258 27.8568 28.7924 29.7321 30.6757 31 30 29 28 27 26 25 24 23 22 21 20 19 18 17 16 15 14 13 12 11 10 9 8 7 6 5 4 3 2 1 0
0 1 2 3 4 5 6 7 8 9 10 11 12 13 14 15 16 17 18 19 20 21 22 23 24 25 26 27 28 29 30 31 32 33 34 35 36 37 38 39 40 41 42 43 44 45 46 47 48 49 50 51 52 53 53.7122 53.2353 52.7731 52.3259 51.8941 51.4781 51.0784 50.6063 50 49.4065 48.8262 48.2597 47.7074 47.1699 46.6476 46.1411 45.6508 45.1774 44.7214 44.2832 43.8634 43.4626 43.0813 42.72 42.3792 42.0595 41.7612 41.4849 41.1461 40.7185 40.3113 39.9249 39.5601 39.2173 38.833 38.2753 37.7359 37.2156 36.7151 36.2353 35.7771 35.2278 34.6699 34.1321 33.6155 33.121 32.6497 32.2025 31.6228 31.0644 30.5287 30.0167 29.5296 29.0689 28.6356 28.2312 27.8568 27.5136 27.2029 26.9258 26.6833 26.4764 26.3059 26.1725 26.0768 26.0192 26 26 26 25.9615 25.7099 25.4951 25.318 25.1794 25.0799 25.02 25 25 25 24.6982 24.3516 24.0416 23.7697 23.5372 23.3452 23.1948 23.0868 23.0217 22.8035 22.561 22.3607 22.2036 22.0907 22.0227 22 22 22 22 22 22 22 22 22.0227 22.0907 22.2036 22.2036 22.0907 22.0227 22 22 22 22 22 22 22 22.0227 22.0907 22.2036 22.3607 22.561 22.8035 23 22.8035 22.561 22.3607 22.2036 22.0907 22.0227 22 22 22 22 22.0227 22.0907 22.2036 22.3607 22.561 22.4722 22.1359 21.8403 21.587 21.3776 21.2132 21.095 21.0238 21 21 21 21 21 21 21.0238 21.095 21.2132 21.3776 21.587 21.8403 22.1359 22.2036 22.0907 21.8403 21.587 21.3776 21.2132 21.095 21.0238 21 21 21 21 21 21 21 21 21 21 21 21 21 21 21 21 21 21 21 20.8806 20.6155 20.3961 20.2237 20.0998 20.025 20 19.9249 19.6469 19.4165 19.2354 19.105 19.0263 18.9737 18.6815 18.4391 18.2483 17.8885 17.4642 17.088 16.7631 16.4924 16.2788 16.1245 15.8114 15.2643 14.7648 14.3178 13.8924 13.4164 13 12.6491 12.3693 12.1655 12.0416 11.3137 10.6301 9.8995 9.21954 8.48528 7.81025 7.2111 6.7082 6.32456 5.83095 5.38516 5.09902 5 5 5.09902 5.38516 5.09902 4.12311 3.16228 2.23607 1.41421 1 1 1.41421 2 2 2 2 2.23607 2.82843 3.60555 4.47214 5.38516 6.32456 7.28011 8.24621 9.21954 10.198 11.1803 12.1655 13.1529 14.1421 15.1327 16.1245 17.1172 17.8885 17 16.1245 15.2643 14.4222 13.6015 12.8062 12.0416 11.3137 10.6301 10 9.43398 8.94427 8.544 8.24621 8.06226 8 8 8.06226 8.24621 8.544 8.94427 9.43398 10 10.6301 11.3137 12.0416 12.7279 13.4536 14.2127 15 15.8114 16.6433 17.4929 18.3576 19.2354 20.1246 21.0238 21.9317 22.8254 23.7065 24.5967 25.4951 26.4008 27.313 28.2312 29.1548 30.0832 31.0161 31 30 29 28 27 26 25 24 23 22 21 20 19 18 17 16 15 14 13 12 11 10 9 8 7 6 5 4 3 2 1 0
0 1 2 3 4 5 6 7 8 9 10 11 12 13 14 15 16 17 18 19 20 21 22 23 24 25 26 27 28 29 30 31 32 33 34 35 36 37 38 39 40 41 42 43 44 45 46 47 48 49 50 51 52 53 52.8394 52.3546 51.8845 51.4296 50.9902 50.5668 50.1597 49.7695 49.2037 48.6004 48.0104 47.4342 46.8722 46.3249 45.793 45.2769 44.7772 44.2945 43.8292 43.382 42.9535 42.5441 42.1545 41.7852 41.4367 41.1096 40.8044 40.5216 40.2492 39.8121 39.3954 39 38.6264 38.2753 37.9473 37.4433 36.8917 36.3593 35.8469 35.3553 34.8855 34.4093 33.8378 33.2866 32.7567 32.249 31.7648 31.305 30.8058 30.2324 29.6816 29.1548 28.6531 28.178 27.7308 27.313 26.9258 26.5707 26.2488 25.9615 25.7099 25.4951 25.318 25.1794 25.0799 25.02 25 25 25 25 24.7386 24.5153 24.3311 24.1868 24.0832 24.0208 24 24 24 23.7697 23.4094 23.0868 22.8035 22.561 22.3607 22.2036 22.0907 22.0227 21.8403 21.587 21.3776 21.2132 21.095 21.0238 21 21 21 21 21 21 21 21 21.0238 21.095 21.2132 21.2132 21.095 21.0238 21 21 21 21 21 21 21 21.0238 21.095 21.2132 21.3776 21.587 21.8403 22 21.8403 21.587 21.3776 21.2132 21.095 21.0238 21 21 21 21 21.0238 21.095 21.2132 21.3776 21.587 21.5407 21.1896 20.8806 20.6155 20.3961 20.2237 20.0998 20.025 20 20 20 20 20 20 20.025 20.0998 20.2237 20.3961 20.6155 20.8806 21.1896 21.2132 21.095 20.8806 20.6155 20.3961 20.2237 20.0998 20.025 20 20 20 20 20 20 20 20 20 20 20 20 20 20 20 20 20 20 20 19.9249 19.6469 19.4165 19.2354 19.105 19.0263 19 18.9737 18.6815 18.4391 18.2483 18.1108 18.0278 18 17.72 17.4642 17.2627 17 16.5529 16.1555 15.8114 15.5242 15.2971 15.1327 15 14.4222 13.8924 13.4164 13 12.53 12.083 11.7047 11.4018 11.1803 11.0454 10.6301 9.8995 9.21954 8.48528 7.81025 7.07107 6.40312 5.83095 5.38516 5 4.47214 4.12311 4 4 4.12311 4.47214 5 4.47214 3.60555 2.82843 2.23607 2 2 2 1.41421 1 1 1 1.41421 2.23607 3.16228 4.12311 5.09902 6.08276 7.07107 8.06226 9.05539 10.0499 11.0454 12.0416 13.0384 14.0357 15.0333 16.0312 17.0294 18.0278 17.4929 16.6433 15.8114 15 14.2127 13.4536 12.7279 12.0416 11.4018 10.8167 10.2956 9.84886 9.48683 9.21954 9.05539 9 9 9.05539 9.21954 9.48683 9.84886 10.2956 10.8167 11.4018 12.0416 12.7279 13.4536 14.1421 14.8661 15.6205 16.4012 17.2047 18.0278 18.868 19.7231 20.5913 21.4709 22.3607 23.2594 24.1661 25.0599 25.9422 26.8328 27.7308 28.6356 29.5466 30.4631 31.3847 31 30 29 28 27 26 25 24 23 22 21 20 19 18 17 16 15 14 13 12 11 10 9 8 7 6 5 4 3 2 1 0
0 1 2 3 4 5 6 7 8 9 10 11 12 13 14 15 16 17 18 19 20 21 22 23 24 25 26 27 28 29 30 31 32 33 34 35 36 37 38 39 40 41 42 43 44 45 46 47 48 49 50 51 52 52.4786 51.9711 51.4781 51 50.5371 50.0899 49.6588 49.2443 48.8467 48.4149 47.8017 47.2017 46.6154 46.0435 45.4863 44.9444 44.4185 43.909 43.4166 42.9418 42.4853 42.0476 41.6293 41.2311 40.8534 40.4969 40.1622 39.8497 39.5601 39.2938 38.9102 38.4838 38.0789 37.6962 37.3363 37 36.6197 36.0555 35.5106 34.9857 34.4819 34 33.541 33.0151 32.45 31.9061 31.3847 30.8869 30.4138 29.9666 29.4109 28.8444 28.3019 27.7849 27.2947 26.8328 26.4008 26 25.632 25.2982 25 24.7386 24.5153 24.3311 24.1868 24.0832 24.0208 24 24 24 24.0208 23.7697 23.5372 23.3452 23.1948 23.0868 23.0217 23 23 23 22.8473 22.4722 22.1359 21.8403 21.587 21.3776 21.2132 21.095 21.0238 20.8806 20.6155 20.3961 20.2237 20.0998 20.025 20 20 20 20 20 20 20 20 20.025 20.0998 20.2237 20.2237 20.0998 20.025 20 20 20 20 20 20 20 20.025 20.0998 20.2237 20.3961 20.6155 20.8806 21 20.8806 20.6155 20.3961 20.2237 20.0998 20.025 20 20 20 20 20.025 20.0998 20.2237 20.3961 20.6155 20.6155 20.2485 19.9249 19.6469 19.4165 19.2354 19.105 19.0263 19 19 19 19 19 19 19.0263 19.105 19.2354 19.4165 19.6469 19.9249 20.2485 20.2237 20.0998 19.9249 19.6469 19.4165 19.2354 19.105 19.0263 19 19 19 19 19 19 19 19 19 19 19 19 19 19 19 19 19 19 19 18.9737 18.6815 18.4391 18.2483 18.1108 18.0278 18 18 17.72 17.4642 17.2627 17.1172 17.0294 17 16.7631 16.4924 16.2788 16.1245 15.6525 15.2315 14.8661 14.5602 14.3178 14.1421 14.0357 13.6015 13.0384 12.53 12.083 11.6619 11.1803 10.7703 10.4403 10.198 10.0499 10 9.21954 8.48528 7.81025 7.07107 6.40312 5.65685 5 4.47214 4.12311 3.60555 3.16228 3 3 3.16228 3.60555 4.24264 5 4.24264 3.60555 3.16228 2.23607 1.41421 1 1 0 0 0 1 2 3 4 5 6 7 8 9 10 11 12 13 14 15 16 17 18 18.0278 17.2047 16.4012 15.6205 14.8661 14.1421 13.4536 12.8062 12.2066 11.6619 11.1803 10.7703 10.4403 10.198 10.0499 10 10 10.0499 10.198 10.4403 10.7703 11.1803 11.6619 12.2066 12.8062 13.4536 14.1421 14.8661 15.5563 16.2788 17.0294 17.8045 18.6011 19.4165 20.2485 21.095 21.9545 22.8254 23.7065 24.5967 25.4951 26.4008 27.2947 28.178 29.0689 29.9666 30.8707 31.7805 31 30 29 28 27 26 25 24 23 22 21 20 19 18 17 16 15 14 13 12 11 10 9 8 7 6 5 4 3 2 1 0
0 1 2 3 4 5 6 7 8 9 10 11 12 13 14 15 16 17 18 19 20 21 22 23 24 25 26 27 28 29 30 31 32 33 34 35 36 37 38 39 40 41 42 43 44 45 46 47 48 49 50 51 52 51.6236 51.1077 50.6063 50.1199 49.6488 49.1935 48.7545 48.3322 47.927 47.5395 47.0106 46.4004 45.8039 45.2217 44.6542 44.1022 43.566 43.0465 42.5441 42.0595 41.5933 41.1461 40.7185 40.3113 39.9249 39.5601 39.2173 38.8973 38.6005 38.3275 38.0132 37.5766 37.1618 36.7696 36.4006 36.0555 35.7351 35.2278 34.6699 34.1321 33.6155 33.121 32.6497 32.2025 31.6228 31.0644 30.5287 30.0167 29.5296 29.0689 28.6007 28.0179 27.4591 26.9258 26.4197 25.9422 25.4951 25.0799 24.6982 24.3516 24.0416 23.7697 23.5372 23.3452 23.1948 23.0868 23.0217 23 23 23 23.0217 22.8035 22.561 22.3607 22.2036 22.0907 22.0227 22 22 22 21.9317 21.5407 21.1896 20.8806 20.6155 20.3961 20.2237 20.0998 20.025 19.9249 19.6469 19.4165 19.2354 19.105 19.0263 19 19 19 19 19 19 19 19 19.0263 19.105 19.2354 19.2354 19.105 19.0263 19 19 19 19 19 19 19 19.0263 19.105 19.2354 19.4165 19.6469 19.9249 20 19.9249 19.6469 19.4165 19.2354 19.105 19.0263 19 19 19 19 19.0263 19.105 19.2354 19.4165 19.6469 19.6977 19.3132 18.9737 18.6815 18.4391 18.2483 18.1108 18.0278 18 18 18 18 18 18 18.0278 18.1108 18.2483 18.4391 18.6815 18.9737 19.3132 19.2354 19.105 18.9737 18.6815 18.4391 18.2483 18.1108 18.0278 18 18 18 18 18 18 18 18 18 18 18 18 18 18 18 18 18 18 18 18 17.72 17.4642 17.2627 17.1172 17.0294 17 17 16.7631 16.4924 16.2788 16.1245 16.0312 16 15.8114 15.5242 15.2971 15.1327 14.7648 14.3178 13.9284 13.6015 13.3417 13.1529 13.0384 12.8062 12.2066 11.6619 11.1803 10.7703 10.2956 9.84886 9.48683 9.21954 9.05539 9 8.60233 7.81025 7.07107 6.40312 5.65685 5 4.24264 3.60555 3.16228 2.82843 2.23607 2 2 2.23607 2.82843 3.60555 4.24264 5 4 3 2 1 0 0 0 0 0 1 2 3 4 5 6 7 8 9 10 11 12 13 14 15 16 17 18 18.6011 17.8045 17.0294 16.2788 15.5563 14.8661 14.2127 13.6015 13.0384 12.53 12.083 11.7047 11.4018 11.1803 11.0454 11 11 11.0454 11.1803 11.4018 11.7047 12.083 12.53 13.0384 13.6015 14.2127 14.8661 15.5563 16.2788 16.9706 17.6918 18.4391 19.2094 20 20.8087 21.6333 22.4722 23.3238 24.1868 25.0599 25.9422 26.8328 27.7308 28.6356 29.5296 30.4138 31.305 32 31 30 29 28 27 26 25 24 23 22 21 20 19 18 17 16 15 14 13 12 11 10 9 8 7 6 5 4 3 2 1 0
0 1 2 3 4 5 6 7 8 9 10 11 12 13 14 15 16 17 18 19 20 21 22 23 24 25 26 27 28 29 30 31 32 33 34 35 36 37 38 39 40 41 42 43 44 45 46 47 48 49 50 51 51.3128 50.774 50.2494 49.7393 49.2443 48.7647 48.3011 47.8539 47.4236 47.0106 46.6154 46.2277 45.607 45 44.4072 43.8292 43.2666 42.72 42.19 41.6773 41.1825 40.7063 40.2492 39.8121 39.3954 39 38.6264 38.2753 37.9473 37.6431 37.3631 37.108 36.6742 36.2491 35.8469 35.4683 35.1141 34.7851 34.4093 33.8378 33.2866 32.7567 32.249 31.7648 31.305 30.8058 30.2324 29.6816 29.1548 28.6531 28.178 27.7308 27.2029 26.6271 26.0768 25.5539 25.0599 24.5967 24.1661 23.7697 23.4094 23.0868 22.8035 22.561 22.3607 22.2036 22.0907 22.0227 22 22 22 22.0227 21.8403 21.587 21.3776 21.2132 21.095 21.0238 21 21 21 21 20.6155 20.2485 19.9249 19.6469 19.4165 19.2354 19.105 19.0263 18.9737 18.6815 18.4391 18.2483 18.1108 18.0278 18 18 18 18 18 18 18 18 18.0278 18.1108 18.2483 18.2483 18.1108 18.0278 18 18 18 18 18 18 18 18.0278 18.1108 18.2483 18.4391 18.6815 18.9737 19 18.9737 18.6815 18.4391 18.2483 18.1108 18.0278 18 18 18 18 18.0278 18.1108 18.2483 18.4391 18.6815 18.7883 18.3848 18.0278 17.72 17.4642 17.2627 17.1172 17.0294 17 17 17 17 17 17 17.0294 17.1172 17.2627 17.4642 17.72 18.0278 18.3848 18.2483 18.1108 18.0278 17.72 17.4642 17.2627 17.1172 17.0294 17 17 17 17 17 17 17 17 17 17 17 17 17 17 17 17 17 17 17 17 16.7631 16.4924 16.2788 16.1245 16.0312 16 16 15.8114 15.5242 15.2971 15.1327 15.0333 15 14.8661 14.5602 14.3178 14.1421 13.8924 13.4164 13 12.6491 12.3693 12.1655 12.0416 12 11.4018 10.8167 10.2956 9.84886 9.43398 8.94427 8.544 8.24621 8.06226 8 8 7.2111 6.40312 5.65685 5 4.24264 3.60555 2.82843 2.23607 2 1.41421 1 1 1.41421 2.23607 2.82843 3.60555 4.47214 4 3 2 1 0 1 1 0 0 1 2 3 4 5 6 7 8 9 10 11 12 13 14 15 16 17 18 19 18.4391 17.6918 16.9706 16.2788 15.6205 15 14.4222 13.8924 13.4164 13 12.6491 12.3693 12.1655 12.0416 12 12 12.0416 12.1655 12.3693 12.6491 13 13.4164 13.8924 14.4222 15 15.6205 16.2788 16.9706 17.6918 18.3848 19.105 19.8494 20.6155 21.4009 22.2036 23.0217 23.8537 24.6982 25.5539 26.4197 27.2947 28.178 29.0689 29.9666 30.8707 31.7648 32 31 30 29 28 27 26 25 24 23 22 21 20 19 18 17 16 15 14 13 12 11 10 9 8 7 6 5 4 3 2 1 0
0 1 2 3 4 5 6 7 8 9 10 11 12 13 14 15 16 17 18 19 20 21 22 23 24 25 26 27 28 29 30 31 32 33 34 35 36 37 38 39 40 41 42 43 44 45 46 47 48 49 50 51 50.4777 49.93 49.3964 48.8774 48.3735 47.8853 47.4131 46.9574 46.5188 46.0977 45.6946 45.31 44.8219 44.2041 43.6005 43.0116 42.4382 41.8808 41.3401 40.8167 40.3113 39.8246 39.3573 38.9102 38.4838 38.0789 37.6962 37.3363 37 36.6879 36.4006 36.1386 35.7771 35.3412 34.9285 34.5398 34.176 33.8378 33.5261 33.0151 32.45 31.9061 31.3847 30.8869 30.4138 29.9666 29.4109 28.8444 28.3019 27.7849 27.2947 26.8328 26.4008 25.807 25.2389 24.6982 24.1868 23.7065 23.2594 22.8473 22.4722 22.1359 21.8403 21.587 21.3776 21.2132 21.095 21.0238 21 21 21 21.0238 20.8806 20.6155 20.3961 20.2237 20.0998 20.025 20 20 20 20 19.6977 19.3132 18.9737 18.6815 18.4391 18.2483 18.1108 18.0278 18 17.72 17.4642 17.2627 17.1172 17.0294 17 17 17 17 17 17 17 17 17.0294 17.1172 17.2627 17.2627 17.1172 17.0294 17 17 17 17 17 17 17 17.0294 17.1172 17.2627 17.4642 17.72 18 18 18 17.72 17.4642 17.2627 17.1172 17.0294 17 17 17 17 17.0294 17.1172 17.2627 17.4642 17.72 17.8885 17.4642 17.088 16.7631 16.4924 16.2788 16.1245 16.0312 16 16 16 16 16 16 16.0312 16.1245 16.2788 16.4924 16.7631 17.088 17.4642 17.2627 17.1172 17.0294 16.7631 16.4924 16.2788 16.1245 16.0312 16 16 16 16 16 16 16 16 16 16 16 16 16 16 16 16 16 16 16 16 15.8114 15.5242 15.2971 15.1327 15.0333 15 15 14.8661 14.5602 14.3178 14.1421 14.0357 14 13.9284 13.6015 13.3417 13.1529 13 12.53 12.083 11.7047 11.4018 11.1803 11.0454 11 10.6301 10 9.43398 8.94427 8.544 8.06226 7.61577 7.28011 7.07107 7 7 6.7082 5.83095 5 4.24264 3.60555 2.82843 2.23607 1.41421 1 1 0 0 1 1.41421 2.23607 3.16228 4.12311 4 3 2 1 0 0 0 0 1 1.41421 2.23607 3.16228 4.12311 5.09902 6.08276 7.07107 8.06226 9.05539 10.0499 11.0454 12.0416 13.0384 14.0357 15.0333 16.0312 17.0294 18.0278 19.0263 19.105 18.3848 17.6918 17.0294 16.4012 15.8114 15.2643 14.7648 14.3178 13.9284 13.6015 13.3417 13.1529 13.0384 13 13 13.0384 13.1529 13.3417 13.6015 13.9284 14.3178 14.7648 15.2643 15.8114 16.4012 17.0294 17.6918 18.3848 19.105 19.799 20.5183 21.2603 22.0227 22.8035 23.6008 24.4131 25.2389 26.0768 26.9258 27.7849 28.6531 29.5296 30.4138 31.305 32.2025 32 31 30 29 28 27 26 25 24 23 22 21 20 19 18 17 16 15 14 13 12 11 10 9 8 7 6 5 4 3 2 1 0
0 1 2 3 4 5 6 7 8 9 10 11 12 13 14 15 16 17 18 19 20 21 22 23 24 25 26 27 28 29 30 31 32 33 34 35 36 37 38 39 40 41 42 43 44 45 46 47 48 49 50 50.2195 49.6488 49.0918 48.5489 48.0208 47.5079 47.0106 46.5296 46.0652 45.618 45.1885 44.7772 44.3847 44.0114 43.4166 42.8019 42.2019 41.6173 41.0488 40.4969 39.9625 39.4462 38.9487 38.4708 38.0132 37.5766 37.1618 36.7696 36.4006 36.0555 35.7351 35.4401 35.171 34.8855 34.4384 34.0147 33.6155 33.2415 32.8938 32.573 32.2025 31.6228 31.0644 30.5287 30.0167 29.5296 29.0689 28.6007 28.0179 27.4591 26.9258 26.4197 25.9422 25.4951 25 24.4131 23.8537 23.3238 22.8254 22.3607 21.9317 21.5407 21.1896 20.8806 20.6155 20.3961 20.2237 20.0998 20.025 20 20 20 20.025 19.9249 19.6469 19.4165 19.2354 19.105 19.0263 19 19 19 19 18.7883 18.3848 18.0278 17.72 17.4642 17.2627 17.1172 17.0294 17 16.7631 16.4924 16.2788 16.1245 16.0312 16 16 16 16 16 16 16 16 16.0312 16.1245 16.2788 16.2788 16.1245 16.0312 16 16 16 16 16 16 16 16.0312 16.1245 16.2788 16.4924 16.7631 17 17 17 16.7631 16.4924 16.2788 16.1245 16.0312 16 16 16 16 16.0312 16.1245 16.2788 16.4924 16.7631 17 16.5529 16.1555 15.8114 15.5242 15.2971 15.1327 15.0333 15 15 15 15 15 15 15.0333 15.1327 15.2971 15.5242 15.8114 16.1555 16.4924 16.2788 16.1245 16.0312 15.8114 15.5242 15.2971 15.1327 15.0333 15 15 15 15 15 15 15 15 15 15 15 15 15 15 15 15 15 15 15 15 14.8661 14.5602 14.3178 14.1421 14.0357 14 14 13.9284 13.6015 13.3417 13.1529 13.0384 13 13 12.6491 12.3693 12.1655 12.0416 11.6619 11.1803 10.7703 10.4403 10.198 10.0499 10 9.8995 9.21954 8.60233 8.06226 7.61577 7.2111 6.7082 6.32456 6.08276 6 6 6 5.38516 4.47214 3.60555 2.82843 2.23607 1.41421 1 0 0 0 0 0 1 2 2.82843 3.60555 4.12311 3.16228 2.23607 1.41421 1 1 1 1 1.41421 2.23607 2.82843 3.60555 4.47214 5.38516 6.32456 7.28011 8.24621 9.21954 10.198 11.1803 12.1655 13.1529 14.1421 15.1327 16.1245 17.1172 18.1108 19.105 19.799 19.105 18.4391 17.8045 17.2047 16.6433 16.1245 15.6525 15.2315 14.8661 14.5602 14.3178 14.1421 14.0357 14 14 14.0357 14.1421 14.3178 14.5602 14.8661 15.2315 15.6525 16.1245 16.6433 17.2047 17.8045 18.4391 19.105 19.799 20.5183 21.2132 21.9317 22.6716 23.4307 24.2074 25 25.807 26.6271 27.4591 28.3019 29.1548 30.0167 30.8869 31.7648 32.6497 32 31 30 29 28 27 26 25 24 23 22 21 20 19 18 17 16 15 14 13 12 11 10 9 8 7 6 5 4 3 2 1 0
0 1 2 3 4 5 6 7 8 9 10 11 12 13 14 15 16 17 18 19 20 21 22 23 24 25 26 27 28 29 30 31 32 33 34 35 36 37 38 39 40 41 42 43 44 45 46 47 48 49 49.93 49.3964 48.8262 48.2597 47.7074 47.1699 46.6476 46.1411 45.6508 45.1774 44.7214 44.2832 43.8634 43.4626 43.0813 42.638 42.0119 41.4005 40.8044 40.2244 39.6611 39.1152 38.5876 38.0789 37.5899 37.1214 36.6742 36.2491 35.8469 35.4683 35.1141 34.7851 34.4819 34.2053 33.9559 33.541 33.1059 32.6956 32.311 31.9531 31.6228 31.3209 30.8058 30.2324 29.6816 29.1548 28.6531 28.178 27.7308 27.2029 26.6271 26.0768 25.5539 25.0599 24.5967 24.1661 23.6008 23.0217 22.4722 21.9545 21.4709 21.0238 20.6155 20.2485 19.9249 19.6469 19.4165 19.2354 19.105 19.0263 19 19 19 19.0263 18.9737 18.6815 18.4391 18.2483 18.1108 18.0278 18 18 18 18 17.8885 17.4642 17.088 16.7631 16.4924 16.2788 16.1245 16.0312 16 15.8114 15.5242 15.2971 15.1327 15.0333 15 15 15 15 15 15 15 15 15.0333 15.1327 15.2971 15.2971 15.1327 15.0333 15 15 15 15 15 15 15 15.0333 15.1327 15.2971 15.5242 15.8114 16 16 16 15.8114 15.5242 15.2971 15.1327 15.0333 15 15 15 15 15.0333 15.1327 15.2971 15.5242 15.8114 16 15.6525 15.2315 14.8661 14.5602 14.3178 14.1421 14.0357 14 14 14 14 14 14 14.0357 14.1421 14.3178 14.5602 14.8661 15.2315 15.5242 15.2971 15.1327 15.0333 14.8661 14.5602 14.3178 14.1421 14.0357 14 14 14 14 14 14 14 14 14 14 14 14 14 14 14 14 14 14 14 14 13.9284 13.6015 13.3417 13.1529 13.0384 13 13 13 12.6491 12.3693 12.1655 12.0416 12 12 11.7047 11.4018 11.1803 11.0454 10.7703 10.2956 9.84886 9.48683 9.21954 9.05539 9 9 8.48528 7.81025 7.2111 6.7082 6.32456 5.83095 5.38516 5.09902 5 5 5 5.09902 4.12311 3.16228 2.23607 1.41421 1 0 0 0 1 1 0 1 1.41421 2.23607 3.16228 4.12311 3.60555 2.82843 2.23607 2 2 2 2 2.23607 2.82843 3.60555 4.24264 5 5.83095 6.7082 7.61577 8.544 9.48683 10.4403 11.4018 12.3693 13.3417 14.3178 15.2971 16.2788 17.2627 18.2483 19.2354 20.2237 19.8494 19.2094 18.6011 18.0278 17.4929 17 16.5529 16.1555 15.8114 15.5242 15.2971 15.1327 15.0333 15 15 15.0333 15.1327 15.2971 15.5242 15.8114 16.1555 16.5529 17 17.4929 18.0278 18.6011 19.2094 19.8494 20.5183 21.2132 21.9317 22.6274 23.3452 24.0832 24.8395 25.6125 26.4008 27.2029 28.0179 28.8444 29.6816 30.5287 31.3847 32.249 33 32 31 30 29 28 27 26 25 24 23 22 21 20 19 18 17 16 15 14 13 12 11 10 9 8 7 6 5 4 3 2 1 0
0 1 2 3 4 5 6 7 8 9 10 11 12 13 14 15 16 17 18 19 20 21 22 23 24 25 26 27 28 29 30 31 32 33 34 35 36 37 38 39 40 41 42 43 44 45 46 47 48 49 49.0918 48.5489 48.0104 47.4342 46.8722 46.3249 45.793 45.2769 44.7772 44.2945 43.8292 43.382 42.9535 42.5441 42.1545 41.7852 41.2311 40.6079 40 39.4081 38.833 38.2753 37.7359 37.2156 36.7151 36.2353 35.7771 35.3412 34.9285 34.5398 34.176 33.8378 33.5261 33.2415 32.9848 32.6497 32.2025 31.7805 31.3847 31.0161 30.6757 30.3645 30 29.4109 28.8444 28.3019 27.7849 27.2947 26.8328 26.4008 25.807 25.2389 24.6982 24.1868 23.7065 23.2594 22.8035 22.2036 21.6333 21.095 20.5913 20.1246 19.6977 19.3132 18.9737 18.6815 18.4391 18.2483 18.1108 18.0278 18 18 18 18.0278 18.0278 17.72 17.4642 17.2627 17.1172 17.0294 17 17 17 17 17 16.5529 16.1555 15.8114 15.5242 15.2971 15.1327 15.0333 15 14.8661 14.5602 14.3178 14.1421 14.0357 14 14 14 14 14 14 14 14 14.0357 14.1421 14.3178 14.3178 14.1421 14.0357 14 14 14 14 14 14 14 14.0357 14.1421 14.3178 14.5602 14.8661 15 15 15 14.8661 14.5602 14.3178 14.1421 14.0357 14 14 14 14 14.0357 14.1421 14.3178 14.5602 14.8661 15 14.7648 14.3178 13.9284 13.6015 13.3417 13.1529 13.0384 13 13 13 13 13 13 13.0384 13.1529 13.3417 13.6015 13.9284 14.3178 14.5602 14.3178 14.1421 14.0357 13.9284 13.6015 13.3417 13.1529 13.0384 13 13 13 13 13 13 13 13 13 13 13 13 13 13 13 13 13 13 13 13 13 12.6491 12.3693 12.1655 12.0416 12 12 12 11.7047 11.4018 11.1803 11.0454 11 11 10.7703 10.4403 10.198 10.0499 9.84886 9.43398 8.94427 8.544 8.24621 8.06226 8 8 7.81025 7.07107 6.40312 5.83095 5.38516 5 4.47214 4.12311 4 4 4 4.12311 4 3 2 1 0 0 0 1 1.41421 1 0 0 1 2 3 4 4.24264 3.60555 3.16228 3 3 3 3 3.16228 3.60555 4.24264 5 5.65685 6.40312 7.2111 8.06226 8.94427 9.84886 10.7703 11.7047 12.6491 13.6015 14.5602 15.5242 16.4924 17.4642 18.4391 19.4165 20.3961 20.6155 20 19.4165 18.868 18.3576 17.8885 17.4642 17.088 16.7631 16.4924 16.2788 16.1245 16.0312 16 16 16.0312 16.1245 16.2788 16.4924 16.7631 17.088 17.4642 17.8885 18.3576 18.868 19.4165 20 20.6155 21.2603 21.9317 22.6274 23.3452 24.0416 24.7588 25.4951 26.2488 27.0185 27.8029 28.6007 29.4109 30.2324 31.0644 31.9061 32.7567 33 32 31 30 29 28 27 26 25 24 23 22 21 20 19 18 17 16 15 14 13 12 11 10 9 8 7 6 5 4 3 2 1 0
0 1 2 3 4 5 6 7 8 9 10 11 12 13 14 15 16 17 18 19 20 21 22 23 24 25 26 27 28 29 30 31 32 33 34 35 36 37 38 39 40 41 42 43 44 45 46 47 48 48.8262 48.2597 47.7074 47.1699 46.6154 46.0435 45.4863 44.9444 44.4185 43.909 43.4166 42.9418 42.4853 42.0476 41.6293 41.2311 40.8534 40.4599 39.8246 39.2046 38.6005 38.0132 37.4433 36.8917 36.3593 35.8469 35.3553 34.8855 34.4384 34.0147 33.6155 33.2415 32.8938 32.573 32.28 32.0156 31.7648 31.305 30.8707 30.4631 30.0832 29.7321 29.4109 29.1204 28.6007 28.0179 27.4591 26.9258 26.4197 25.9422 25.4951 25 24.4131 23.8537 23.3238 22.8254 22.3607 21.9317 21.4009 20.8087 20.2485 19.7231 19.2354 18.7883 18.3848 18.0278 17.72 17.4642 17.2627 17.1172 17.0294 17 17 17 17.0294 17.088 16.7631 16.4924 16.2788 16.1245 16.0312 16 16 16 16 16 15.6525 15.2315 14.8661 14.5602 14.3178 14.1421 14.0357 14 13.9284 13.6015 13.3417 13.1529 13.0384 13 13 13 13 13 13 13 13 13.0384 13.1529 13.3417 13.3417 13.1529 13.0384 13 13 13 13 13 13 13 13.0384 13.1529 13.3417 13.6015 13.9284 14 14 14 13.9284 13.6015 13.3417 13.1529 13.0384 13 13 13 13 13.0384 13.1529 13.3417 13.6015 13.9284 14 13.8924 13.4164 13 12.6491 12.3693 12.1655 12.0416 12 12 12 12 12 12 12.0416 12.1655 12.3693 12.6491 13 13.4164 13.6015 13.3417 13.1529 13.0384 13 12.6491 12.3693 12.1655 12.0416 12 12 12 12 12 12 12 12 12 12 12 12 12 12 12 12 12 12 12 12 12 11.7047 11.4018 11.1803 11.0454 11 11 11 10.7703 10.4403 10.198 10.0499 10 10 9.84886 9.48683 9.21954 9.05539 8.94427 8.544 8.06226 7.61577 7.28011 7.07107 7 7 7 6.40312 5.65685 5 4.47214 4.12311 3.60555 3.16228 3 3 3 3.16228 3.16228 2.82843 2 1 0 0 1 1 1 1.41421 1 0 1 2 3 4 5 4.47214 4.12311 4 4 4 4 4.12311 4.47214 5 5.65685 6.40312 7.07107 7.81025 8.60233 9.43398 10.2956 11.1803 12.083 13 13.9284 14.8661 15.8114 16.7631 17.72 18.6815 19.6469 20.6155 21.4009 20.8087 20.2485 19.7231 19.2354 18.7883 18.3848 18.0278 17.72 17.4642 17.2627 17.1172 17.0294 17 17 17.0294 17.1172 17.2627 17.4642 17.72 18.0278 18.3848 18.7883 19.2354 19.7231 20.2485 20.8087 21.4009 22.0227 22.6716 23.3452 24.0416 24.7588 25.4558 26.1725 26.9072 27.6586 28.4253 29.2062 30 30.8058 31.6228 32.45 33.2866 33 32 31 30 29 28 27 26 25 24 23 22 21 20 19 18 17 16 15 14 13 12 11 10 9 8 7 6 5 4 3 2 1 0
0 1 2 3 4 5 6 7 8 9 10 11 12 13 14 15 16 17 18 19 20 21 22 23 24 25 26 27 28 29 30 31 32 33 34 35 36 37 38 39 40 41 42 43 44 45 46 47 48 48.0104 47.4342 46.8722 46.3249 45.793 45.2217 44.6542 44.1022 43.566 43.0465 42.5441 42.0595 41.5933 41.1461 40.7185 40.3113 39.9249 39.5601 39.0512 38.4187 37.8021 37.2022 36.6197 36.0555 35.5106 34.9857 34.4819 34 33.541 33.1059 32.6956 32.311 31.9531 31.6228 31.3209 31.0483 30.8058 30.4138 29.9666 29.5466 29.1548 28.7924 28.4605 28.1603 27.8029 27.2029 26.6271 26.0768 25.5539 25.0599 24.5967 24.1661 23.6008 23.0217 22.4722 21.9545 21.4709 21.0238 20.5913 20 19.4165 18.868 18.3576 17.8885 17.4642 17.088 16.7631 16.4924 16.2788 16.1245 16.0312 16 16 16 16.0312 16.1245 15.8114 15.5242 15.2971 15.1327 15.0333 15 15 15 15 15 14.7648 14.3178 13.9284 13.6015 13.3417 13.1529 13.0384 13 13 12.6491 12.3693 12.1655 12.0416 12 12 12 12 12 12 12 12 12.0416 12.1655 12.3693 12.3693 12.1655 12.0416 12 12 12 12 12 12 12 12.0416 12.1655 12.3693 12.6491 13 13 13 13 13 12.6491 12.3693 12.1655 12.0416 12 12 12 12 12.0416 12.1655 12.3693 12.6491 13 13 13 12.53 12.083 11.7047 11.4018 11.1803 11.0454 11 11 11 11 11 11 11.0454 11.1803 11.4018 11.7047 12.083 12.53 12.6491 12.3693 12.1655 12.0416 12 11.7047 11.4018 11.1803 11.0454 11 11 11 11 11 11 11 11 11 11 11 11 11 11 11 11 11 11 11 11 11 10.7703 10.4403 10.198 10.0499 10 10 10 9.84886 9.48683 9.21954 9.05539 9 9 8.94427 8.544 8.24621 8.06226 8 7.61577 7.2111 6.7082 6.32456 6.08276 6 6 6 5.83095 5 4.24264 3.60555 3.16228 2.82843 2.23607 2 2 2 2.23607 2.23607 2 1.41421 1 1 0 0 0 0 1 1 0 1 2 3 4 5 5.38516 5.09902 5 5 5 5 5.09902 5.38516 5.83095 6.40312 7.07107 7.81025 8.48528 9.21954 10 10.8167 11.6619 12.53 13.4164 14.3178 15.2315 16.1555 17.088 18.0278 18.9737 19.9249 20.8806 21.8403 21.6333 21.095 20.5913 20.1246 19.6977 19.3132 18.9737 18.6815 18.4391 18.2483 18.1108 18.0278 18 18 18.0278 18.1108 18.2483 18.4391 18.6815 18.9737 19.3132 19.6977 20.1246 20.5913 21.095 21.6333 22.2036 22.8035 23.4307 24.0832 24.7588 25.4558 26.1725 26.8701 27.5862 28.3196 29.0689 29.8329 30.6105 31.4006 32.2025 33.0151 33.8378 33 32 31 30 29 28 27 26 25 24 23 22 21 20 19 18 17 16 15 14 13 12 11 10 9 8 7 6 5 4 3 2 1 0
0 1 2 3 4 5 6 7 8 9 10 11 12 13 14 15 16 17 18 19 20 21 22 23 24 25 26 27 28 29 30 31 32 33 34 35 36 37 38 39 40 41 42 43 44 45 46 47 47.8017 47.2017 46.6154 46.0435 45.4863 44.9444 44.4072 43.8292 43.2666 42.72 42.19 41.6773 41.1825 40.7063 40.2492 39.8121 39.3954 39 38.6264 38.2753 37.6431 37.0135 36.4006 35.805 35.2278 34.6699 34.1321 33.6155 33.121 32.6497 32.2025 31.7805 31.3847 31.0161 30.6757 30.3645 30.0832 29.8329 29.5296 29.0689 28.6356 28.2312 27.8568 27.5136 27.2029 26.9258 26.4008 25.807 25.2389 24.6982 24.1868 23.7065 23.2594 22.8035 22.2036 21.6333 21.095 20.5913 20.1246 19.6977 19.2094 18.6011 18.0278 17.4929 17 16.5529 16.1555 15.8114 15.5242 15.2971 15.1327 15.0333 15 15 15 15.0333 15.1327 14.8661 14.5602 14.3178 14.1421 14.0357 14 14 14 14 14 13.8924 13.4164 13 12.6491 12.3693 12.1655 12.0416 12 12 11.7047 11.4018 11.1803 11.0454 11 11 11 11 11 11 11 11 11.0454 11.1803 11.4018 11.4018 11.1803 11.0454 11 11 11 11 11 11 11 11.0454 11.1803 11.4018 11.7047 12.0416 12 12 12 12.0416 11.7047 11.4018 11.1803 11.0454 11 11 11 11 11.0454 11.1803 11.4018 11.7047 12 12 12 11.6619 11.1803 10.7703 10.4403 10.198 10.0499 10 10 10 10 10 10 10.0499 10.198 10.4403 10.7703 11.1803 11.6619 11.7047 11.4018 11.1803 11.0454 11 10.7703 10.4403 10.198 10.0499 10 10 10 10 10 10 10 10 10 10 10 10 10 10 10 10 10 10 10 10 10 9.84886 9.48683 9.21954 9.05539 9 9 9 8.94427 8.544 8.24621 8.06226 8 8 8 7.61577 7.28011 7.07107 7 6.7082 6.32456 5.83095 5.38516 5.09902 5 5 5 5 4.47214 3.60555 2.82843 2.23607 2 1.41421 1 1 1 1.41421 1.41421 1 1 0 0 1 1 1 0 0 1 0 1 2 3 4 5 6 6.08276 6 6 6 6 6.08276 6.32456 6.7082 7.2111 7.81025 8.48528 9.21954 9.8995 10.6301 11.4018 12.2066 13.0384 13.8924 14.7648 15.6525 16.5529 17.4642 18.3848 19.3132 20.2485 21.1896 22.1359 22.4722 21.9545 21.4709 21.0238 20.6155 20.2485 19.9249 19.6469 19.4165 19.2354 19.105 19.0263 19 19 19.0263 19.105 19.2354 19.4165 19.6469 19.9249 20.2485 20.6155 21.0238 21.4709 21.9545 22.4722 23.0217 23.6008 24.2074 24.8395 25.4951 26.1725 26.8701 27.5862 28.2843 29 29.7321 30.4795 31.241 32.0156 32.8024 33.6006 34 33 32 31 30 29 28 27 26 25 24 23 22 21 20 19 18 17 16 15 14 13 12 11 10 9 8 7 6 5 4 3 2 1 0
0 1 2 3 4 5 6 7 8 9 10 11 12 13 14 15 16 17 18 19 20 21 22 23 24 25 26 27 28 29 30 31 32 33 34 35 36 37 38 39 40 41 42 43 44 45 46 47 47.0106 46.4004 45.8039 45.2217 44.6542 44.1022 43.566 43.0116 42.4382 41.8808 41.3401 40.8167 40.3113 39.8246 39.3573 38.9102 38.4838 38.0789 37.6962 37.3363 36.8782 36.2353 35.609 35 34.4093 33.8378 33.2866 32.7567 32.249 31.7648 31.305 30.8707 30.4631 30.0832 29.7321 29.4109 29.1204 28.8617 28.6356 28.178 27.7308 27.313 26.9258 26.5707 26.2488 25.9615 25.6125 25 24.4131 23.8537 23.3238 22.8254 22.3607 21.9317 21.4009 20.8087 20.2485 19.7231 19.2354 18.7883 18.3576 17.8045 17.2047 16.6433 16.1245 15.6525 15.2315 14.8661 14.5602 14.3178 14.1421 14.0357 14 14 14 14.0357 14.1421 13.9284 13.6015 13.3417 13.1529 13.0384 13 13 13 13 13 13 12.53 12.083 11.7047 11.4018 11.1803 11.0454 11 11 10.7703 10.4403 10.198 10.0499 10 10 10 10 10 10 10 10 10.0499 10.198 10.4403 10.4403 10.198 10.0499 10 10 10 10 10 10 10 10.0499 10.198 10.4403 10.7703 11.0454 11 11 11 11.0454 10.7703 10.4403 10.198 10.0499 10 10 10 10 10.0499 10.198 10.4403 10.7703 11 11 11 10.8167 10.2956 9.84886 9.48683 9.21954 9.05539 9 9 9 9 9 9 9.05539 9.21954 9.48683 9.84886 10.2956 10.8167 10.7703 10.4403 10.198 10.0499 10 9.84886 9.48683 9.21954 9.05539 9 9 9 9 9 9 9 9 9 9 9 9 9 9 9 9 9 9 9 9 9 8.94427 8.544 8.24621 8.06226 8 8 8 8 7.61577 7.28011 7.07107 7 7 7 6.7082 6.32456 6.08276 6 5.83095 5.38516 5 4.47214 4.12311 4 4 4 4 4 3.16228 2.23607 1.41421 1 1 0 0 0 1 1 0 0 0 0 0 1 1 0 0 1 0 1 2 3 4 5 6 7 7 7 7 7 7.07107 7.28011 7.61577 8.06226 8.60233 9.21954 9.8995 10.6301 11.3137 12.0416 12.8062 13.6015 14.4222 15.2643 16.1245 17 17.8885 18.7883 19.6977 20.6155 21.5407 22.4722 23.3238 22.8254 22.3607 21.9317 21.5407 21.1896 20.8806 20.6155 20.3961 20.2237 20.0998 20.025 20 20 20.025 20.0998 20.2237 20.3961 20.6155 20.8806 21.1896 21.5407 21.9317 22.3607 22.8254 23.3238 23.8537 24.4131 25 25.6125 26.2488 26.9072 27.5862 28.2843 29 29.6985 30.4138 31.1448 31.8904 32.6497 33.4216 34.2053 34 33 32 31 30 29 28 27 26 25 24 23 22 21 20 19 18 17 16 15 14 13 12 11 10 9 8 7 6 5 4 3 2 1 0
0 1 2 3 4 5 6 7 8 9 10 11 12 13 14 15 16 17 18 19 20 21 22 23 24 25 26 27 28 29 30 31 32 33 34 35 36 37 38 39 40 41 42 43 44 45 46 46.8615 46.2277 45.607 45 44.4072 43.8292 43.2666 42.72 42.19 41.6173 41.0488 40.4969 39.9625 39.4462 38.9487 38.4708 38.0132 37.5766 37.1618 36.7696 36.4006 36.0555 35.4683 34.8281 34.2053 33.6006 33.0151 32.45 31.9061 31.3847 30.8869 30.4138 29.9666 29.5466 29.1548 28.7924 28.4605 28.1603 27.8927 27.6586 27.2947 26.8328 26.4008 26 25.632 25.2982 25 24.6982 24.2074 23.6008 23.0217 22.4722 21.9545 21.4709 21.0238 20.6155 20 19.4165 18.868 18.3576 17.8885 17.4642 17 16.4012 15.8114 15.2643 14.7648 14.3178 13.9284 13.6015 13.3417 13.1529 13.0384 13 13 13 13.0384 13.1529 13 12.6491 12.3693 12.1655 12.0416 12 12 12 12 12 12 11.6619 11.1803 10.7703 10.4403 10.198 10.0499 10 10 9.84886 9.48683 9.21954 9.05539 9 9 9 9 9 9 9 9 9.05539 9.21954 9.48683 9.48683 9.21954 9.05539 9 9 9 9 9 9 9 9.05539 9.21954 9.48683 9.84886 10.0499 10 10 10 10.0499 9.84886 9.48683 9.21954 9.05539 9 9 9 9 9.05539 9.21954 9.48683 9.84886 10 10 10 10 9.43398 8.94427 8.544 8.24621 8.06226 8 8 8 8 8 8 8.06226 8.24621 8.544 8.94427 9.43398 10 9.84886 9.48683 9.21954 9.05539 9 8.94427 8.544 8.24621 8.06226 8 8 8 8 8 8 8 8 8 8 8 8 8 8 8 8 8 8 8 8 8 8 7.61577 7.28011 7.07107 7 7 7 7 6.7082 6.32456 6.08276 6 6 6 5.83095 5.38516 5.09902 5 5 4.47214 4.12311 3.60555 3.16228 3 3 3 3 3 3 2 1 0 0 0 0 0 0 0 0 1 1 1 0 0 0 0 1 1 0 1 2 3 4 5 6 7 8 8 8 8 8.06226 8.24621 8.544 8.94427 9.43398 10 10.6301 11.3137 12.0416 12.7279 13.4536 14.2127 15 15.8114 16.6433 17.4929 18.3576 19.2354 20.1246 21.0238 21.9317 22.8473 23.7697 23.7065 23.2594 22.8473 22.4722 22.1359 21.8403 21.587 21.3776 21.2132 21.095 21.0238 21 21 21.0238 21.095 21.2132 21.3776 21.587 21.8403 22.1359 22.4722 22.8473 23.2594 23.7065 24.1868 24.6982 25.2389 25.807 26.4008 27.0185 27.6586 28.3196 29 29.6985 30.4138 31.1127 31.8277 32.5576 33.3017 34.0588 34.8281 34 33 32 31 30 29 28 27 26 25 24 23 22 21 20 19 18 17 16 15 14 13 12 11 10 9 8 7 6 5 4 3 2 1 0
0 1 2 3 4 5 6 7 8 9 10 11 12 13 14 15 16 17 18 19 20 21 22 23 24 25 26 27 28 29 30 31 32 33 34 35 36 37 38 39 40 41 42 43 44 45 46 46.0977 45.4533 44.8219 44.2041 43.6005 43.0116 42.4382 41.8808 41.3401 40.8044 40.2244 39.6611 39.1152 38.5876 38.0789 37.5899 37.1214 36.6742 36.2491 35.8469 35.4683 35.1141 34.7131 34.0588 33.4216 32.8024 32.2025 31.6228 31.0644 30.5287 30.0167 29.5296 29.0689 28.6356 28.2312 27.8568 27.5136 27.2029 26.9258 26.6833 26.4008 25.9422 25.4951 25.0799 24.6982 24.3516 24.0416 23.7697 23.4094 22.8035 22.2036 21.6333 21.095 20.5913 20.1246 19.6977 19.2094 18.6011 18.0278 17.4929 17 16.5529 16.1245 15.6205 15 14.4222 13.8924 13.4164 13 12.6491 12.3693 12.1655 12.0416 12 12 12 12.0416 12.1655 12.083 11.7047 11.4018 11.1803 11.0454 11 11 11 11 11 11 10.8167 10.2956 9.84886 9.48683 9.21954 9.05539 9 9 8.94427 8.544 8.24621 8.06226 8 8 8 8 8 8 8 8 8.06226 8.24621 8.544 8.544 8.24621 8.06226 8 8 8 8 8 8 8 8.06226 8.24621 8.544 8.94427 9.05539 9 9 9 9.05539 8.94427 8.544 8.24621 8.06226 8 8 8 8 8.06226 8.24621 8.544 8.94427 9 9 9 9 8.60233 8.06226 7.61577 7.28011 7.07107 7 7 7 7 7 7 7.07107 7.28011 7.61577 8.06226 8.60233 9 8.94427 8.544 8.24621 8.06226 8 8 7.61577 7.28011 7.07107 7 7 7 7 7 7 7 7 7 7 7 7 7 7 7 7 7 7 7 7 7 7 6.7082 6.32456 6.08276 6 6 6 6 5.83095 5.38516 5.09902 5 5 5 5 4.47214 4.12311 4 4 3.60555 3.16228 2.82843 2.23607 2 2 2 2 2 2 2 1 0 0 1 1 1 1 1 1 1.41421 2 1.41421 1 1 1 1 1.41421 1 0 1 2 3 4 5 6 7 8 9 9 9 9.05539 9.21954 9.48683 9.84886 10.2956 10.8167 11.4018 12.0416 12.7279 13.4536 14.1421 14.8661 15.6205 16.4012 17.2047 18.0278 18.868 19.7231 20.5913 21.4709 22.3607 23.2594 24.1661 24.5967 24.1661 23.7697 23.4094 23.0868 22.8035 22.561 22.3607 22.2036 22.0907 22.0227 22 22 22.0227 22.0907 22.2036 22.3607 22.561 22.8035 23.0868 23.4094 23.7697 24.1661 24.5967 25.0599 25.5539 26.0768 26.6271 27.2029 27.8029 28.4253 29.0689 29.7321 30.4138 31.1127 31.8277 32.5269 33.2415 33.9706 34.7131 35 34 33 32 31 30 29 28 27 26 25 24 23 22 21 20 19 18 17 16 15 14 13 12 11 10 9 8 7 6 5 4 3 2 1 0
0 1 2 3 4 5 6 7 8 9 10 11 12 13 14 15 16 17 18 19 20 21 22 23 24 25 26 27 28 29 30 31 32 33 34 35 36 37 38 39 40 41 42 43 44 45 46 45.3431 44.6878 44.0454 43.4166 42.8019 42.2019 41.6173 41.0488 40.4969 39.9625 39.4081 38.833 38.2753 37.7359 37.2156 36.7151 36.2353 35.7771 35.3412 34.9285 34.5398 34.176 33.8378 33.3017 32.6497 32.0156 31.4006 30.8058 30.2324 29.6816 29.1548 28.6531 28.178 27.7308 27.313 26.9258 26.5707 26.2488 25.9615 25.7099 25.4951 25.0599 24.5967 24.1661 23.7697 23.4094 23.0868 22.8035 22.4722 22.0227 21.4009 20.8087 20.2485 19.7231 19.2354 18.7883 18.3848 17.8045 17.2047 16.6433 16.1245 15.6525 15.2315 14.7648 14.2127 13.6015 13.0384 12.53 12.083 11.7047 11.4018 11.1803 11.0454 11 11 11 11.0454 11.1803 11.1803 10.7703 10.4403 10.198 10.0499 10 10 10 10 10 10 10 9.43398 8.94427 8.544 8.24621 8.06226 8 8 8 7.61577 7.28011 7.07107 7 7 7 7 7 7 7 7 7.07107 7.28011 7.61577 7.61577 7.28011 7.07107 7 7 7 7 7 7 7 7.07107 7.28011 7.61577 8.06226 8.06226 8 8 8 8.06226 8.06226 7.61577 7.28011 7.07107 7 7 7 7 7.07107 7.28011 7.61577 8.06226 8 8 8 8 7.81025 7.2111 6.7082 6.32456 6.08276 6 6 6 6 6 6 6.08276 6.32456 6.7082 7.2111 7.81025 8 8.06226 7.61577 7.28011 7.07107 7 7 6.7082 6.32456 6.08276 6 6 6 6 6 6 6 6 6 6 6 6 6 6 6 6 6 6 6 6 6 6 5.83095 5.38516 5.09902 5 5 5 5 5 4.47214 4.12311 4 4 4 4 3.60555 3.16228 3 3 2.82843 2.23607 2 1.41421 1 1 1 1 1 1 1 1 0 1 1.41421 2 2 2 2 2 2.23607 2.23607 2 2 2 2 1.41421 1 0 0 1 2 3 4 5 6 7 8 9 10 10 10.0499 10.198 10.4403 10.7703 11.1803 11.6619 12.2066 12.8062 13.4536 14.1421 14.8661 15.5563 16.2788 17.0294 17.8045 18.6011 19.4165 20.2485 21.095 21.9545 22.8254 23.7065 24.5967 25.4951 25.0799 24.6982 24.3516 24.0416 23.7697 23.5372 23.3452 23.1948 23.0868 23.0217 23 23 23.0217 23.0868 23.1948 23.3452 23.5372 23.7697 24.0416 24.3516 24.6982 25.0799 25.4951 25.9422 26.4197 26.9258 27.4591 28.0179 28.6007 29.2062 29.8329 30.4795 31.1448 31.8277 32.5269 33.2415 33.9411 34.6554 35.3836 35 34 33 32 31 30 29 28 27 26 25 24 23 22 21 20 19 18 17 16 15 14 13 12 11 10 9 8 7 6 5 4 3 2 1 0
0 1 2 3 4 5 6 7 8 9 10 11 12 13 14 15 16 17 18 19 20 21 22 23 24 25 26 27 28 29 30 31 32 33 34 35 36 37 38 39 40 41 42 43 44 45 45.2769 44.5982 43.9318 43.2782 42.638 42.0119 41.4005 40.8044 40.2244 39.6611 39.1152 38.5876 38.0132 37.4433 36.8917 36.3593 35.8469 35.3553 34.8855 34.4384 34.0147 33.6155 33.2415 32.8938 32.5576 31.8904 31.241 30.6105 30 29.4109 28.8444 28.3019 27.7849 27.2947 26.8328 26.4008 26 25.632 25.2982 25 24.7386 24.5153 24.1661 23.7065 23.2594 22.8473 22.4722 22.1359 21.8403 21.5407 21.1896 20.6155 20 19.4165 18.868 18.3576 17.8885 17.4642 17.0294 16.4012 15.8114 15.2643 14.7648 14.3178 13.8924 13.4164 12.8062 12.2066 11.6619 11.1803 10.7703 10.4403 10.198 10.0499 10 10 10 10.0499 10.198 10.2956 9.84886 9.48683 9.21954 9.05539 9 9 9 9 9 9 9.05539 8.60233 8.06226 7.61577 7.28011 7.07107 7 7 7 6.7082 6.32456 6.08276 6 6 6 6 6 6 6 6 6.08276 6.32456 6.7082 6.7082 6.32456 6.08276 6 6 6 6 6 6 6 6.08276 6.32456 6.7082 7.2111 7.07107 7 7 7 7.07107 7.2111 6.7082 6.32456 6.08276 6 6 6 6 6.08276 6.32456 6.7082 7.07107 7 7 7 7 7 6.40312 5.83095 5.38516 5.09902 5 5 5 5 5 5 5.09902 5.38516 5.83095 6.40312 7 7 7.07107 6.7082 6.32456 6.08276 6 6 5.83095 5.38516 5.09902 5 5 5 5 5 5 5 5 5 5 5 5 5 5 5 5 5 5 5 5 5 5 5 4.47214 4.12311 4 4 4 4 4 3.60555 3.16228 3 3 3 3 2.82843 2.23607 2 2 2 1.41421 1 1 0 0 0 0 0 0 0 0 0 1 2 2.82843 3 3 3 3 2.23607 1.41421 1 1 1 1 1 0 0 1 1.41421 2.23607 3.16228 4.12311 5.09902 6.08276 7.07107 8.06226 9.05539 10.0499 11 11.0454 11.1803 11.4018 11.7047 12.083 12.53 13.0384 13.6015 14.2127 14.8661 15.5563 16.2788 16.9706 17.6918 18.4391 19.2094 20 20.8087 21.6333 22.4722 23.3238 24.1868 25.0599 25.9422 26 25.632 25.2982 25 24.7386 24.5153 24.3311 24.1868 24.0832 24.0208 24 24 24.0208 24.0832 24.1868 24.3311 24.5153 24.7386 25 25.2982 25.632 26 26.4008 26.8328 27.2947 27.7849 28.3019 28.8444 29.4109 30 30.6105 31.241 31.8904 32.5576 33.2415 33.9411 34.6554 35.3553 36 35 34 33 32 31 30 29 28 27 26 25 24 23 22 21 20 19 18 17 16 15 14 13 12 11 10 9 8 7 6 5 4 3 2 1 0
0 1 2 3 4 5 6 7 8 9 10 11 12 13 14 15 16 17 18 19 20 21 22 23 24 25 26 27 28 29 30 31 32 33 34 35 36 37 38 39 40 41 42 43 44 45 44.5533 43.8634 43.1856 42.5206 41.8688 41.2311 40.6079 40 39.4081 38.833 38.2753 37.7359 37.2022 36.6197 36.0555 35.5106 34.9857 34.4819 34 33.541 33.1059 32.6956 32.311 31.9531 31.6228 31.1448 30.4795 29.8329 29.2062 28.6007 28.0179 27.4591 26.9258 26.4197 25.9422 25.4951 25.0799 24.6982 24.3516 24.0416 23.7697 23.5372 23.2594 22.8254 22.3607 21.9317 21.5407 21.1896 20.8806 20.6155 20.2485 19.8494 19.2094 18.6011 18.0278 17.4929 17 16.5529 16.1555 15.6205 15 14.4222 13.8924 13.4164 13 12.53 12.0416 11.4018 10.8167 10.2956 9.84886 9.48683 9.21954 9.05539 9 9 9 9.05539 9.21954 9.43398 8.94427 8.544 8.24621 8.06226 8 8 8 8 8 8 8.06226 7.81025 7.2111 6.7082 6.32456 6.08276 6 6 6 5.83095 5.38516 5.09902 5 5 5 5 5 5 5 5 5.09902 5.38516 5.83095 5.83095 5.38516 5.09902 5 5 5 5 5 5 5 5.09902 5.38516 5.83095 6.32456 6.08276 6 6 6 6.08276 6.32456 5.83095 5.38516 5.09902 5 5 5 5 5.09902 5.38516 5.83095 6.08276 6 6 6 6 6 5.65685 5 4.47214 4.12311 4 4 4 4 4 4 4.12311 4.47214 5 5.65685 6 6 6.08276 5.83095 5.38516 5.09902 5 5 5 4.47214 4.12311 4 4 4 4 4 4 4 4 4 4 4 4 4 4 4 4 4 4 4 4 4 4 4 3.60555 3.16228 3 3 3 3 3 2.82843 2.23607 2 2 2 2 2 1.41421 1 1 1 1 0 0 0 0 1 1 1 1 1 1 1 1.41421 2.23607 3.16228 3 3 3 3 2 1 0 0 0 0 0 0 1 1.41421 2.23607 2.82843 3.60555 4.47214 5.38516 6.32456 7.28011 8.24621 9.21954 10.198 11.1803 12.0416 12.1655 12.3693 12.6491 13 13.4164 13.8924 14.4222 15 15.6205 16.2788 16.9706 17.6918 18.3848 19.105 19.8494 20.6155 21.4009 22.2036 23.0217 23.8537 24.6982 25.5539 26.4197 26.9258 26.5707 26.2488 25.9615 25.7099 25.4951 25.318 25.1794 25.0799 25.02 25 25 25.02 25.0799 25.1794 25.318 25.4951 25.7099 25.9615 26.2488 26.5707 26.9258 27.313 27.7308 28.178 28.6531 29.1548 29.6816 30.2324 30.8058 31.4006 32.0156 32.6497 33.3017 33.9706 34.6554 35.3553 36.0694 36 35 34 33 32 31 30 29 28 27 26 25 24 23 22 21 20 19 18 17 16 15 14 13 12 11 10 9 8 7 6 5 4 3 2 1 0
0 1 2 3 4 5 6 7 8 9 10 11 12 13 14 15 16 17 18 19 20 21 22 23 24 25 26 27 28 29 30 31 32 33 34 35 36 37 38 39 40 41 42 43 44 44.5533 43.8406 43.1393 42.45 41.7732 41.1096 40.4599 39.8246 39.2046 38.6005 38.0132 37.4433 36.8917 36.3593 35.805 35.2278 34.6699 34.1321 33.6155 33.121 32.6497 32.2025 31.7805 31.3847 31.0161 30.6757 30.3645 29.7321 29.0689 28.4253 27.8029 27.2029 26.6271 26.0768 25.5539 25.0599 24.5967 24.1661 23.7697 23.4094 23.0868 22.8035 22.561 22.3607 21.9317 21.4709 21.0238 20.6155 20.2485 19.9249 19.6469 19.3132 18.9737 18.4391 17.8045 17.2047 16.6433 16.1245 15.6525 15.2315 14.8661 14.2127 13.6015 13.0384 12.53 12.083 11.6619 11.1803 10.6301 10 9.43398 8.94427 8.544 8.24621 8.06226 8 8 8 8.06226 8.24621 8.544 8.06226 7.61577 7.28011 7.07107 7 7 7 7 7 7 7.07107 7.07107 6.40312 5.83095 5.38516 5.09902 5 5 5 5 4.47214 4.12311 4 4 4 4 4 4 4 4 4.12311 4.47214 5 5 4.47214 4.12311 4 4 4 4 4 4 4 4.12311 4.47214 5 5.38516 5.09902 5 5 5 5.09902 5.38516 5 4.47214 4.12311 4 4 4 4 4.12311 4.47214 5 5.09902 5 5 5 5 5 5 4.24264 3.60555 3.16228 3 3 3 3 3 3 3.16228 3.60555 4.24264 5 5 5 5.09902 5 4.47214 4.12311 4 4 4 3.60555 3.16228 3 3 3 3 3 3 3 3 3 3 3 3 3 3 3 3 3 3 3 3 3 3 3 2.82843 2.23607 2 2 2 2 2 2 1.41421 1 1 1 1 1 1 0 0 0 0 0 1 1 1 1.41421 2 2 2 2 2 2 2.23607 2.82843 2.23607 2 2 2 2 2 1 0 1 1 1 1 1 1.41421 2.23607 2.82843 3.60555 4.24264 5 5.83095 6.7082 7.61577 8.544 9.48683 10.4403 11.4018 12.3693 13.1529 13.3417 13.6015 13.9284 14.3178 14.7648 15.2643 15.8114 16.4012 17.0294 17.6918 18.3848 19.105 19.799 20.5183 21.2603 22.0227 22.8035 23.6008 24.4131 25.2389 26.0768 26.9258 27.7849 27.5136 27.2029 26.9258 26.6833 26.4764 26.3059 26.1725 26.0768 26.0192 26 26 26.0192 26.0768 26.1725 26.3059 26.4764 26.6833 26.9258 27.2029 27.5136 27.8568 28.2312 28.6356 29.0689 29.5296 30.0167 30.5287 31.0644 31.6228 32.2025 32.8024 33.4216 34.0588 34.7131 35.3836 36.0694 36.7696 36 35 34 33 32 31 30 29 28 27 26 25 24 23 22 21 20 19 18 17 16 15 14 13 12 11 10 9 8 7 6 5 4 3 2 1 0
0 1 2 3 4 5 6 7 8 9 10 11 12 13 14 15 16 17 18 19 20 21 22 23 24 25 26 27 28 29 30 31 32 33 34 35 36 37 38 39 40 41 42 43 44 43.8406 43.1393 42.4264 41.7253 41.0366 40.3609 39.6989 39.0512 38.4187 37.8021 37.2022 36.6197 36.0555 35.5106 34.9857 34.4093 33.8378 33.2866 32.7567 32.249 31.7648 31.305 30.8707 30.4631 30.0832 29.7321 29.4109 29 28.3196 27.6586 27.0185 26.4008 25.807 25.2389 24.6982 24.1868 23.7065 23.2594 22.8473 22.4722 22.1359 21.8403 21.587 21.3776 21.0238 20.5913 20.1246 19.6977 19.3132 18.9737 18.6815 18.3848 18.0278 17.6918 17.0294 16.4012 15.8114 15.2643 14.7648 14.3178 13.9284 13.4536 12.8062 12.2066 11.6619 11.1803 10.7703 10.2956 9.84886 9.21954 8.60233 8.06226 7.61577 7.28011 7.07107 7 7 7 7.07107 7.28011 7.61577 7.2111 6.7082 6.32456 6.08276 6 6 6 6 6 6 6.08276 6.08276 5.65685 5 4.47214 4.12311 4 4 4 4 3.60555 3.16228 3 3 3 3 3 3 3 3 3.16228 3.60555 4.12311 4.24264 3.60555 3.16228 3 3 3 3 3 3 3 3.16228 3.60555 4.12311 4.47214 4.12311 4 4 4 4.12311 4.47214 4.24264 3.60555 3.16228 3 3 3 3 3.16228 3.60555 4.24264 4.12311 4 4 4 4 4 4 3.60555 2.82843 2.23607 2 2 2 2 2 2 2.23607 2.82843 3.60555 4 4 4 4.12311 4.24264 3.60555 3.16228 3 3 3 2.82843 2.23607 2 2 2 2 2 2 2 2 2 2 2 2 2 2 2 2 2 2 2 2 2 2 2 2 1.41421 1 1 1 1 1 1 1 0 0 0 0 0 0 0 1 1 1 1 1.41421 2 2 2.23607 2.82843 3 3 2.82843 2.23607 2 2 2 1.41421 1 1 1 1 1 1 0 1 1.41421 2 2 2 2.23607 2.82843 3.60555 4.24264 5 5.65685 6.40312 7.2111 8.06226 8.94427 9.84886 10.7703 11.7047 12.6491 13.6015 14.3178 14.5602 14.8661 15.2315 15.6525 16.1245 16.6433 17.2047 17.8045 18.4391 19.105 19.799 20.5183 21.2132 21.9317 22.6716 23.4307 24.2074 25 25.807 26.6271 27.4591 28.3019 28.4605 28.1603 27.8927 27.6586 27.4591 27.2947 27.1662 27.074 27.0185 27 27 27.0185 27.074 27.1662 27.2947 27.4591 27.6586 27.8927 28.1603 28.4605 28.7924 29.1548 29.5466 29.9666 30.4138 30.8869 31.3847 31.9061 32.45 33.0151 33.6006 34.2053 34.8281 35.4683 36.1248 36.7967 37 36 35 34 33 32 31 30 29 28 27 26 25 24 23 22 21 20 19 18 17 16 15 14 13 12 11 10 9 8 7 6 5 4 3 2 1 0
0 1 2 3 4 5 6 7 8 9 10 11 12 13 14 15 16 17 18 19 20 21 22 23 24 25 26 27 28 29 30 31 32 33 34 35 36 37 38 39 40 41 42 43 43.8406 43.1393 42.4264 41.7253 41.0122 40.3113 39.6232 38.9487 38.2884 37.6431 37.0135 36.4006 35.805 35.2278 34.6699 34.1321 33.6006 33.0151 32.45 31.9061 31.3847 30.8869 30.4138 29.9666 29.5466 29.1548 28.7924 28.4605 28.1603 27.5862 26.9072 26.2488 25.6125 25 24.4131 23.8537 23.3238 22.8254 22.3607 21.9317 21.5407 21.1896 20.8806 20.6155 20.3961 20.1246 19.6977 19.2354 18.7883 18.3848 18.0278 17.72 17.4642 17.088 16.7631 16.2788 15.6205 15 14.4222 13.8924 13.4164 13 12.6491 12.0416 11.4018 10.8167 10.2956 9.84886 9.43398 8.94427 8.48528 7.81025 7.2111 6.7082 6.32456 6.08276 6 6 6 6.08276 6.32456 6.7082 6.40312 5.83095 5.38516 5.09902 5 5 5 5 5 5 5.09902 5.09902 5 4.24264 3.60555 3.16228 3 3 3 3 2.82843 2.23607 2 2 2 2 2 2 2 2 2.23607 2.82843 3.16228 3.60555 2.82843 2.23607 2 2 2 2 2 2 2 2.23607 2.82843 3.16228 3.60555 3.16228 3 3 3 3.16228 3.60555 3.60555 2.82843 2.23607 2 2 2 2 2.23607 2.82843 3.60555 3.16228 3 3 3 3 3 3 3 2.23607 1.41421 1 1 1 1 1 1 1.41421 2.23607 3 3 3 3 3.16228 3.60555 2.82843 2.23607 2 2 2 2 1.41421 1 1 1 1 1 1 1 1 1 1 1 1 1 1 1 1 1 1 1 1 1 1 1 1 1 0 0 0 0 0 0 0 0 1 1 1 1 1 1 1.41421 2 2 2 2.23607 2.82843 3 3.16228 3.60555 4 3.16228 2.23607 1.41421 1 1 1 1 0 0 0 0 0 0 0 0 1 2 2 2 2.23607 2.82843 3.60555 4.47214 5.38516 6.32456 7.07107 7.81025 8.60233 9.43398 10.2956 11.1803 12.083 13 13.9284 14.8661 15.5242 15.8114 16.1555 16.5529 17 17.4929 18.0278 18.6011 19.2094 19.8494 20.5183 21.2132 21.9317 22.6274 23.3452 24.0832 24.8395 25.6125 26.4008 27.2029 28.0179 28.8444 29.4109 29.1204 28.8617 28.6356 28.4429 28.2843 28.1603 28.0713 28.0179 28 28 28.0179 28.0713 28.1603 28.2843 28.4429 28.6356 28.8617 29.1204 29.4109 29.7321 30.0832 30.4631 30.8707 31.305 31.7648 32.249 32.7567 33.2866 33.8378 34.4093 35 35.609 36.2353 36.8782 37.5366 37 36 35 34 33 32 31 30 29 28 27 26 25 24 23 22 21 20 19 18 17 16 15 14 13 12 11 10 9 8 7 6 5 4 3 2 1 0
0 1 2 3 4 5 6 7 8 9 10 11 12 13 14 15 16 17 18 19 20 21 22 23 24 25 26 27 28 29 30 31 32 33 34 35 36 37 38 39 40 41 42 43 43.1393 42.4264 41.7253 41.0122 40.3113 39.598 38.8973 38.2099 37.5366 36.8782 36.2353 35.609 35 34.4093 33.8378 33.2866 32.7567 32.2025 31.6228 31.0644 30.5287 30.0167 29.5296 29.0689 28.6356 28.2312 27.8568 27.5136 27.2029 26.8701 26.1725 25.4951 24.8395 24.2074 23.6008 23.0217 22.4722 21.9545 21.4709 21.0238 20.6155 20.2485 19.9249 19.6469 19.4165 19.2354 18.7883 18.3576 17.8885 17.4642 17.088 16.7631 16.4924 16.1555 15.8114 15.5242 14.8661 14.2127 13.6015 13.0384 12.53 12.083 11.7047 11.3137 10.6301 10 9.43398 8.94427 8.544 8.06226 7.61577 7.07107 6.40312 5.83095 5.38516 5.09902 5 5 5 5.09902 5.38516 5.83095 5.65685 5 4.47214 4.12311 4 4 4 4 4 4 4.12311 4.12311 4 3.60555 2.82843 2.23607 2 2 2 2 2 1.41421 1 1 1 1 1 1 1 1 1.41421 2 2.23607 2.82843 2.23607 1.41421 1 1 1 1 1 1 1 1.41421 2 2.23607 2.82843 2.23607 2 2 2 2.23607 2.82843 2.82843 2.23607 1.41421 1 1 1 1 1.41421 2.23607 2.82843 2.23607 2 2 2 2 2 2 2 2 1 0 0 0 0 0 0 1 2 2 2 2 2 2.23607 2.82843 2.23607 1.41421 1 1 1 1 1 0 0 0 0 0 0 0 0 0 0 0 0 0 0 0 0 0 0 0 0 0 0 0 0 0 0 1 1 1 1 1 1 1 1.41421 2 2 2 2 2 2.23607 2.82843 3 3 3.16228 3.60555 4 4.12311 4.47214 4 3 2 1 0 0 0 0 0 1 1 1 1 0 0 0 1 1 1 1 1.41421 2.23607 3.16228 4.12311 5.09902 6.08276 7.07107 8.06226 9.05539 10 10.8167 11.6619 12.53 13.4164 14.3178 15.2315 16.1555 16.7631 17.088 17.4642 17.8885 18.3576 18.868 19.4165 20 20.6155 21.2603 21.9317 22.6274 23.3452 24.0416 24.7588 25.4951 26.2488 27.0185 27.8029 28.6007 29.4109 30.2324 30.0832 29.8329 29.6142 29.4279 29.2746 29.1548 29.0689 29.0172 29 29 29.0172 29.0689 29.1548 29.2746 29.4279 29.6142 29.8329 30.0832 30.3645 30.6757 31.0161 31.3847 31.7805 32.2025 32.6497 33.121 33.6155 34.1321 34.6699 35.2278 35.805 36.4006 37.0135 37.6431 38 37 36 35 34 33 32 31 30 29 28 27 26 25 24 23 22 21 20 19 18 17 16 15 14 13 12 11 10 9 8 7 6 5 4 3 2 1 0
0 1 2 3 4 5 6 7 8 9 10 11 12 13 14 15 16 17 18 19 20 21 22 23 24 25 26 27 28 29 30 31 32 33 34 35 36 37 38 39 40 41 42 43 42.4264 41.7253 41.0122 40.3113 39.598 38.8973 38.1838 37.4833 36.7967 36.1248 35.4683 34.8281 34.2053 33.6006 33.0151 32.45 31.9061 31.3847 30.8058 30.2324 29.6816 29.1548 28.6531 28.178 27.7308 27.313 26.9258 26.5707 26.2488 25.9615 25.4558 24.7588 24.0832 23.4307 22.8035 22.2036 21.6333 21.095 20.5913 20.1246 19.6977 19.3132 18.9737 18.6815 18.4391 18.2483 17.8885 17.4642 17 16.5529 16.1555 15.8114 15.5242 15.2315 14.8661 14.5602 14.1421 13.4536 12.8062 12.2066 11.6619 11.1803 10.7703 10.4403 9.8995 9.21954 8.60233 8.06226 7.61577 7.2111 6.7082 6.32456 5.65685 5 4.47214 4.12311 4 4 4 4.12311 4.47214 5 5 4.24264 3.60555 3.16228 3 3 3 3 3 3 3.16228 3.16228 3 2.82843 2.23607 1.41421 1 1 1 1 1 1 0 0 0 0 0 0 0 0 1 1 1.41421 2 1.41421 1 0 0 0 0 0 0 0 1 1 1.41421 2 1.41421 1 1 1 1.41421 2 2 1.41421 1 0 0 0 0 1 1.41421 2.23607 1.41421 1 1 1 1 1 1 1 1 1 0 0 1 1 0 0 1 1.41421 1 1 1 1 1.41421 2 2 1 0 0 0 0 0 0 0 1 1 1 1 1 1 1 1 1 1 1 1 1 1 1 1 1 1 1 1 1 1 1 1 1.41421 2 2 2 2 2 2 2.23607 2.82843 3 3 3 3 3 3 3 3 3.16228 3.60555 4.24264 5 5 4 3 2 1 0 0 1 1 1 1.41421 2 2 1 0 0 0 1 0 0 0 1 2 3 4 5 6 7 8 9 10 11 12 13 13.8924 14.7648 15.6525 16.5529 17.4642 18.0278 18.3848 18.7883 19.2354 19.7231 20.2485 20.8087 21.4009 22.0227 22.6716 23.3452 24.0416 24.7588 25.4558 26.1725 26.9072 27.6586 28.4253 29.2062 30 30.8058 31.0483 30.8058 30.5941 30.4138 30.2655 30.1496 30.0666 30.0167 30 30 30.0167 30.0666 30.1496 30.2655 30.4138 30.5941 30.8058 31.0483 31.3209 31.6228 31.9531 32.311 32.6956 33.1059 33.541 34 34.4819 34.9857 35.5106 36.0555 36.6197 37.2022 37.8021 38.4187 38 37 36 35 34 33 32 31 30 29 28 27 26 25 24 23 22 21 20 19 18 17 16 15 14 13 12 11 10 9 8 7 6 5 4 3 2 1 0
0 1 2 3 4 5 6 7 8 9 10 11 12 13 14 15 16 17 18 19 20 21 22 23 24 25 26 27 28 29 30 31 32 33 34 35 36 37 38 39 40 41 42 42.45 41.7253 41.0122 40.3113 39.598 38.8973 38.1838 37.4833 36.7696 36.0694 35.3836 34.7131 34.0588 33.4216 32.8024 32.2025 31.6228 31.0644 30.5287 30 29.4109 28.8444 28.3019 27.7849 27.2947 26.8328 26.4008 26 25.632 25.2982 25 24.6982 24.0416 23.3452 22.6716 22.0227 21.4009 20.8087 20.2485 19.7231 19.2354 18.7883 18.3848 18.0278 17.72 17.4642 17.2627 17 16.5529 16.1245 15.6525 15.2315 14.8661 14.5602 14.3178 13.9284 13.6015 13.3417 12.7279 12.0416 11.4018 10.8167 10.2956 9.84886 9.48683 9.21954 8.48528 7.81025 7.2111 6.7082 6.32456 5.83095 5.38516 5 4.24264 3.60555 3.16228 3 3 3 3.16228 3.60555 4.24264 4.12311 3.60555 2.82843 2.23607 2 2 2 2 2 2 2.23607 2.23607 2 2 1.41421 1 0 0 0 0 0 0 0 1 1 1 1 1 1 0 0 0 1 1 1 0 0 0 1 0 0 1 0 0 0 1 1 1 0 0 0 1 1 1 1 0 0 1 1 0 0 1 1.41421 1 0 0 0 0 0 0 0 0 0 0 1 1.41421 1.41421 1 0 0 1 0 0 0 0 1 1 1 1 0 1 1 1 1 1 1 1.41421 2 2 2 2 2 2 2 2 2 2 2 2 2 2 2 2 2 2 2 2 2 2 2 2.23607 2.82843 3 3 3 3 3 3.16228 3.60555 4 3.60555 2.82843 2.23607 2 2 2 2 2.23607 2.82843 3.60555 4.47214 5.09902 4.12311 3.16228 2.23607 1.41421 1 0 1 2 2 2.23607 2.82843 2.23607 1.41421 1 1 1 1 0 0 0 1 2 3 4 5 6 7 8 9 10 11 12 13 14 15 16 17 17.8885 18.7883 19.3132 19.6977 20.1246 20.5913 21.095 21.6333 22.2036 22.8035 23.4307 24.0832 24.7588 25.4558 26.1725 26.8701 27.5862 28.3196 29.0689 29.8329 30.6105 31.4006 32.0156 31.7805 31.5753 31.4006 31.257 31.1448 31.0644 31.0161 31 31 31.0161 31.0644 31.1448 31.257 31.4006 31.5753 31.7805 32.0156 32.28 32.573 32.8938 33.2415 33.6155 34.0147 34.4384 34.8855 35.3553 35.8469 36.3593 36.8917 37.4433 38.0132 38.6005 39 38 37 36 35 34 33 32 31 30 29 28 27 26 25 24 23 22 21 20 19 18 17 16 15 14 13 12 11 10 9 8 7 6 5 4 3 2 1 0
0 1 2 3 4 5 6 7 8 9 10 11 12 13 14 15 16 17 18 19 20 21 22 23 24 25 26 27 28 29 30 31 32 33 34 35 36 37 38 39 40 41 42 41.7732 41.0366 40.3113 39.598 38.8973 38.1838 37.4833 36.7696 36.0694 35.3553 34.6554 33.9706 33.3017 32.6497 32.0156 31.4006 30.8058 30.2324 29.6816 29.1548 28.6007 28.0179 27.4591 26.9258 26.4197 25.9422 25.4951 25.0799 24.6982 24.3516 24.0416 23.7697 23.3238 22.6274 21.9317 21.2603 20.6155 20 19.4165 18.868 18.3576 17.8885 17.4642 17.088 16.7631 16.4924 16.2788 16.1245 15.6525 15.2315 14.7648 14.3178 13.9284 13.6015 13.3417 13 12.6491 12.3693 12.0416 11.3137 10.6301 10 9.43398 8.94427 8.544 8.24621 7.81025 7.07107 6.40312 5.83095 5.38516 5 4.47214 4.12311 3.60555 2.82843 2.23607 2 2 2 2.23607 2.82843 3.60555 3.16228 2.82843 2.23607 1.41421 1 1 1 1 1 1 1.41421 1.41421 1 1 1 0 0 1 1 1 1 1 1 1.41421 2 2 2 2 1.41421 1 1 0 0 0 0 0 0 1 1 0 0 1 1 1 0 0 0 0 0 1 0 0 0 0 0 0 1 1.41421 1.41421 1 0 0 1 0 0 0 1 1 1 1 1 1 1 1 1.41421 2.23607 2.23607 1.41421 1 0 0 0 1 1 0 0 0 0 0 0 1 2 2 2 2 2 2.23607 2.82843 3 3 3 3 3 3 3 3 3 3 3 3 3 3 3 3 3 3 3 3 3 3 3.16228 3.60555 4 4 4 4 4 4.12311 4.47214 4.12311 3.16228 2.23607 1.41421 1 1 1 1 1.41421 2.23607 3.16228 4.12311 5 4 3 2 1 0 0 1 2 3 3.16228 3.60555 2.82843 2.23607 2 2 2 1 0 0 0 1 2 3 4 5 6 7 8 9 10 11 12 13 14 15 16 17 18 19 20 20.6155 21.0238 21.4709 21.9545 22.4722 23.0217 23.6008 24.2074 24.8395 25.4951 26.1725 26.8701 27.5862 28.2843 29 29.7321 30.4795 31.241 32.0156 32.8024 32.7567 32.5576 32.3883 32.249 32.1403 32.0624 32.0156 32 32 32.0156 32.0624 32.1403 32.249 32.3883 32.5576 32.7567 32.9848 33.2415 33.5261 33.8378 34.176 34.5398 34.9285 35.3412 35.7771 36.2353 36.7151 37.108 37.3631 37.6431 37.855 38.0789 38.3275 38 37 36 35 34 33 32 31 30 29 28 27 26 25 24 23 22 21 20 19 18 17 16 15 14 13 12 11 10 9 8 7 6 5 4 3 2 1 0
0 1 2 3 4 5 6 7 8 9 10 11 12 13 14 15 16 17 18 19 20 21 22 23 24 25 26 27 28 29 30 31 32 33 34 35 36 37 38 39 40 41 41.8688 41.1096 40.3609 39.6232 38.8973 38.1838 37.4833 36.7696 36.0694 35.3553 34.6554 33.9411 33.2415 32.5576 31.8904 31.241 30.6105 30 29.4109 28.8444 28.3019 27.7849 27.2029 26.6271 26.0768 25.5539 25.0599 24.5967 24.1661 23.7697 23.4094 23.0868 22.8035 22.4722 21.9317 21.2132 20.5183 19.8494 19.2094 18.6011 18.0278 17.4929 17 16.5529 16.1555 15.8114 15.5242 15.2971 15.1327 14.7648 14.3178 13.8924 13.4164 13 12.6491 12.3693 12.083 11.7047 11.4018 11.1803 10.6301 9.8995 9.21954 8.60233 8.06226 7.61577 7.28011 7.07107 6.40312 5.65685 5 4.47214 4.12311 3.60555 3.16228 2.82843 2.23607 1.41421 1 1 1 1.41421 2.23607 2.82843 2.23607 2 1.41421 1 0 0 0 0 0 0 1 1 0 0 0 0 0 1 2 2 2 2 2 2.23607 2.82843 3 3 2.82843 2.23607 2 1.41421 1 1 1 1 1 1 1.41421 1 0 0 1 2 1.41421 1 1 1 1 1 1.41421 1 1 1 1 1 1 1.41421 2.23607 2.23607 1.41421 1 0 0 0 1 1 1.41421 2 2 2 2 2 2 2 2.23607 2.82843 2.82843 2.23607 1.41421 1 1 1 1.41421 1.41421 1 1 1 1 1 1 1.41421 2.23607 3 3 3 3 3.16228 3.60555 4 4 4 4 4 4 4 4 4 4 4 4 4 4 4 4 4 4 4 4 4 4 4.12311 4.47214 5 5 5 5 5 5 5 4 3 2 1 0 0 0 0 1 2 3 4 5 4 3 2 1 0 0 1 2 2.82843 3.60555 4.12311 3.60555 3.16228 3 3 2.23607 1.41421 1 1 1 1.41421 2.23607 3.16228 4.12311 5.09902 6.08276 7.07107 8.06226 9.05539 10.0499 11.0454 12.0416 13.0384 14.0357 15.0333 16.0312 17.0294 18.0278 19.0263 20.025 21.0238 21.9317 22.3607 22.8254 23.3238 23.8537 24.4131 25 25.6125 26.2488 26.9072 27.5862 28.2843 29 29.6985 30.4138 31.1448 31.8904 32.573 32.8938 33.2415 33.541 33.3766 33.2415 33.1361 33.0606 33.0151 33 33 33.0151 33.0606 33.1361 33.2415 33.3766 33.541 33.7343 33.9559 34.2053 34.4819 34.7851 35.0571 35.1283 35.2278 35.3553 35.5106 35.6931 35.9026 36.1386 36.4006 36.6742 36.8782 37.108 37.3631 37.6431 37 36 35 34 33 32 31 30 29 28 27 26 25 24 23 22 21 20 19 18 17 16 15 14 13 12 11 10 9 8 7 6 5 4 3 2 1 0
0 1 2 3 4 5 6 7 8 9 10 11 12 13 14 15 16 17 18 19 20 21 22 23 24 25 26 27 28 29 30 31 32 33 34 35 36 37 38 39 40 41 41.2311 40.4599 39.6989 38.9487 38.2099 37.4833 36.7696 36.0694 35.3553 34.6554 33.9411 33.2415 32.5269 31.8277 31.1448 30.4795 29.8329 29.2062 28.6007 28.0179 27.4591 26.9258 26.4008 25.807 25.2389 24.6982 24.1868 23.7065 23.2594 22.8473 22.4722 22.1359 21.8403 21.587 21.095 20.5183 19.799 19.105 18.4391 17.8045 17.2047 16.6433 16.1245 15.6525 15.2315 14.8661 14.5602 14.3178 14.1421 13.8924 13.4164 13 12.53 12.083 11.7047 11.4018 11.1803 10.7703 10.4403 10.198 9.84886 9.21954 8.48528 7.81025 7.2111 6.7082 6.32456 6.08276 5.83095 5 4.24264 3.60555 3.16228 2.82843 2.23607 2 1.41421 1 0 0 0 1 2 2.23607 1.41421 1 1 0 0 1 1 1 1 0 0 0 0 0 1 1 1 1.41421 2.23607 3 3 3 3 3.16228 3.60555 4 4 3.60555 3.16228 2.82843 2.23607 2 2 2 2 2 2 2.23607 1.41421 1 1 1.41421 2.23607 2.23607 2 2 2 2 2 2.23607 2 2 2 2 2 2 2.23607 2.82843 2.82843 2.23607 1.41421 1 1 1 1.41421 2 2.23607 2.82843 3 3 3 3 3 3 3.16228 3.60555 3.60555 2.82843 2.23607 2 2 2 2.23607 2.23607 2 2 2 2 2 2 2.23607 2.82843 3.16228 3 3 3.16228 3.60555 4.12311 4.12311 4 4 4 4.12311 4.47214 5 5 5 5 5 5 5 5 5 5 5 5 5 5 5 5 5.09902 5.38516 5.65685 5 4.47214 4.12311 4 4 4 4 3 2 1 0 1 1 0 1 2 3 4 5 4.12311 3.16228 2.23607 1.41421 1 0 1 1.41421 2.23607 3 3.16228 3.60555 4 4 3.60555 2.82843 2.23607 2 2 2 2.23607 2.82843 3.60555 4.47214 5.38516 6.32456 7.28011 8.24621 9.21954 10.198 11.1803 12.1655 13.1529 14.1421 15.1327 16.1245 17.1172 18.1108 19.105 20.0998 21.095 22.0907 23.0868 23.7065 24.1868 24.6982 25.2389 25.807 26.4008 27.0185 27.6586 28.3196 29 29.6985 30.4138 30.8058 31.0483 31.3209 31.6228 31.9531 32.311 32.6956 33.0606 33.1361 33.2415 33.3766 33.541 33.7343 33.9559 34.0147 34.0588 34.1321 34.2345 34.1321 34.0588 34.0147 34 34 34 34.0147 34.0588 34.1321 34.2345 34.3657 34.5254 34.7131 34.9285 35.171 35.4401 35.6931 35.9026 36.1386 36.4006 36.6879 37 36 35 34 33 32 31 30 29 28 27 26 25 24 23 22 21 20 19 18 17 16 15 14 13 12 11 10 9 8 7 6 5 4 3 2 1 0
0 1 2 3 4 5 6 7 8 9 10 11 12 13 14 15 16 17 18 19 20 21 22 23 24 25 26 27 28 29 30 31 32 33 34 35 36 37 38 39 40 41 40.6079 39.8246 39.0512 38.2884 37.5366 36.7967 36.0694 35.3553 34.6554 33.9411 33.2415 32.5269 31.8277 31.1127 30.4138 29.7321 29.0689 28.4253 27.8029 27.2029 26.6271 26.0768 25.5539 25 24.4131 23.8537 23.3238 22.8254 22.3607 21.9317 21.5407 21.1896 20.8806 20.6155 20.2485 19.7231 19.105 18.3848 17.6918 17.0294 16.4012 15.8114 15.2643 14.7648 14.3178 13.9284 13.6015 13.3417 13.1529 13 12.53 12.083 11.6619 11.1803 10.7703 10.4403 10.198 9.84886 9.48683 9.21954 8.94427 8.48528 7.81025 7.07107 6.40312 5.83095 5.38516 5.09902 5 4.47214 3.60555 2.82843 2.23607 2 1.41421 1 1 0 0 0 0 1 2 1.41421 1 0 0 0 1 1.41421 2 2 1.41421 1 1 1 1 1 1.41421 2 2 2.23607 2.82843 3.60555 3.16228 3 3 3 3 3 3 3 3 3.16228 3.16228 3 3 3 3 3 3 2.82843 2.23607 2 2 2.23607 2.82843 3.16228 3 3 3 3 3 3.16228 3 3 2.82843 2.23607 2 2 2.23607 2.82843 3 2.82843 2.23607 2 2 2 2.23607 2.82843 3.16228 3.16228 2.82843 2.23607 2 2 2.23607 2.82843 3.60555 4.24264 4.24264 3.60555 3.16228 3 3 3 3.16228 3.16228 3 3 3 3 3 3 3 2.82843 2.23607 2 2 2.23607 2.82843 3.16228 3.16228 3 3 3 3.16228 3.60555 4.24264 5 5 5 5 5 5 5 5.09902 5.38516 5.83095 5.83095 5.38516 5.09902 5 5 5 5 5 4.24264 3.60555 3.16228 3 3 3 3.16228 3 2 1 0 0 0 0 1 2 3 4 5 4.47214 3.60555 2.82843 2 1 0 0 1 2 2 2.23607 2.82843 3 3 3 3.16228 3.16228 3 3 3 3.16228 3.60555 4.24264 5 5.83095 6.7082 7.61577 8.544 9.48683 10.4403 11.4018 12.3693 13.3417 14.3178 15.2971 16.2788 17.2627 18.2483 19.2354 20.2237 21.2132 22.2036 23.1948 24.1868 25.0599 25.5539 26.0768 26.6271 27.2029 27.8029 28.4253 29.0689 29.2746 29.4279 29.6142 29.8329 30.0832 30.3645 30.6757 31.0161 31.3847 31.7805 32.0624 32.1403 32.249 32.3883 32.5576 32.7567 32.9848 33.2415 33.5261 33.3766 33.2415 33.1361 33.0606 33.0151 33 33 33 33.0151 33.0606 33.1361 33.2415 33.3766 33.541 33.7343 33.9559 34.2053 34.4819 34.7131 34.9285 35.171 35.4401 35.7351 36.0555 36 35 34 33 32 31 30 29 28 27 26 25 24 23 22 21 20 19 18 17 16 15 14 13 12 11 10 9 8 7 6 5 4 3 2 1 0
0 1 2 3 4 5 6 7 8 9 10 11 12 13 14 15 16 17 18 19 20 21 22 23 24 25 26 27 28 29 30 31 32 33 34 35 36 37 38 39 40 40.8044 40 39.2046 38.4187 37.6431 36.8782 36.1248 35.3836 34.6554 33.9411 33.2415 32.5269 31.8277 31.1127 30.4138 29.6985 29 28.3196 27.6586 27.0185 26.4008 25.807 25.2389 24.6982 24.1868 23.6008 23.0217 22.4722 21.9545 21.4709 21.0238 20.6155 20.2485 19.9249 19.6469 19.4165 18.868 18.3576 17.6918 16.9706 16.2788 15.6205 15 14.4222 13.8924 13.4164 13 12.6491 12.3693 12.1655 12.0416 11.6619 11.1803 10.7703 10.2956 9.84886 9.48683 9.21954 8.94427 8.544 8.24621 8.06226 7.61577 7.07107 6.40312 5.65685 5 4.47214 4.12311 4 4 3.16228 2.23607 1.41421 1 1 0 0 0 1 1 0 1 1 1 0 0 1 1 1.41421 2.23607 2.82843 2.82843 2.23607 2 2 2 2 2 2.23607 2.82843 3 3.16228 3.60555 2.82843 2.23607 2 2 2 2 2 2 2 2 2.23607 2.82843 3.60555 4 4 4 4 4 3.60555 3.16228 3 3 3.16228 3.60555 4.12311 4 4 4 3.60555 3.16228 3 3 2.82843 2.23607 1.41421 1 1 1.41421 2 2 2.23607 2.82843 3 3 3 3.16228 3 2.82843 2.23607 2 1.41421 1 1 1.41421 2.23607 2.82843 3.60555 3.60555 3.16228 3 3 3 3 3 3 3.16228 3.60555 4 3.60555 2.82843 2.23607 2 2 1.41421 1 1 1.41421 2 2.23607 2.23607 2 2 2 2.23607 2.82843 3.60555 4 4 4 4 4 4 4 4.12311 4.47214 5 5 4.47214 4.12311 4 4 4 4 4.12311 3.60555 2.82843 2.23607 2 2 2 2.23607 2.82843 2.23607 1.41421 1 1 1 1 1.41421 2.23607 3.16228 4.12311 5.09902 5 4.12311 3.16228 2.23607 1.41421 1 0 1 1 1 1.41421 2 2 2 2 2.23607 2.82843 3.60555 4 4 4.12311 4.47214 5 5.65685 6.40312 7.2111 8.06226 8.94427 9.84886 10.7703 11.7047 12.6491 13.6015 14.5602 15.5242 16.4924 17.4642 18.4391 19.4165 20.3961 21.3776 22.3607 23.3452 24.3311 25.318 26.3059 26.9258 27.4591 28 28.0179 28.0713 28.1603 28.2843 28.4429 28.6356 28.8617 29.1204 29.4109 29.7321 30.0832 30.4631 30.8707 31.0644 31.1448 31.257 31.4006 31.5753 31.7805 32.0156 32.28 32.5576 32.3883 32.249 32.1403 32.0624 32.0156 32 32 32 32.0156 32.0624 32.1403 32.249 32.3883 32.5576 32.7567 32.9848 33.2415 33.5261 33.7343 33.9559 34.2053 34.4819 34.7851 35.1141 35.4683 35 34 33 32 31 30 29 28 27 26 25 24 23 22 21 20 19 18 17 16 15 14 13 12 11 10 9 8 7 6 5 4 3 2 1 0
0 1 2 3 4 5 6 7 8 9 10 11 12 13 14 15 16 17 18 19 20 21 22 23 24 25 26 27 28 29 30 31 32 33 34 35 36 37 38 39 40 40.2244 39.4081 38.6005 37.8021 37.0135 36.2353 35.4683 34.7131 33.9706 33.2415 32.5269 31.8277 31.1127 30.4138 29.6985 29 28.2843 27.5862 26.9072 26.2488 25.6125 25 24.4131 23.8537 23.3238 22.8035 22.2036 21.6333 21.095 20.5913 20.1246 19.6977 19.3132 18.9737 18.6815 18.4391 18.0278 17.4929 16.9706 16.2788 15.5563 14.8661 14.2127 13.6015 13.0384 12.53 12.083 11.7047 11.4018 11.1803 11.0454 10.7703 10.2956 9.84886 9.43398 8.94427 8.544 8.24621 8.06226 7.61577 7.28011 7.07107 6.7082 6.32456 5.65685 5 4.24264 3.60555 3.16228 3 3 2.82843 2 1 0 0 0 1 1 1.41421 1 0 0 0 0 0 1 1.41421 2 2.23607 2.82843 3.60555 3.60555 3.16228 3 3 3 3 3 3 3 3 3 2.82843 2.23607 1.41421 1 1 1 1 1 1 1 1 1.41421 2.23607 2.82843 3.16228 3 3 3.16228 3.60555 4.12311 4.12311 4 4 4 4 4 4 3.60555 3.16228 2.82843 2.23607 2 2 2 1.41421 1 0 0 1 1 1 1.41421 2.23607 2.82843 3.16228 2.82843 2.23607 2 2 1.41421 1 1 0 0 1 1.41421 2.23607 2.82843 2.82843 2.23607 2 2 2 2 2 2 2.23607 2.82843 3 2.82843 2.23607 1.41421 1 1 1 0 0 1 1 1.41421 1.41421 1 1 1 1.41421 2.23607 2.82843 3 3 3 3 3 3 3 3.16228 3.60555 4 4 3.60555 3.16228 3 3 3 3 3.16228 2.82843 2.23607 1.41421 1 1 1 1.41421 2 2 2.23607 2 2 2 2 2.23607 2.82843 3.60555 4.47214 4.12311 4 4 3.60555 2.82843 2 1 0 0 0 0 1 1 1 1 1 1.41421 2.23607 3.16228 4.12311 5 5.09902 5.38516 5.83095 6.40312 7.07107 7.81025 8.60233 9.43398 10.2956 11.1803 12.083 13 13.9284 14.8661 15.8114 16.7631 17.72 18.6815 19.6469 20.6155 21.587 22.561 23.5372 24.5153 25.4951 26.4764 27 27 27 27.0185 27.074 27.1662 27.2947 27.4591 27.6586 27.8927 28.1603 28.4605 28.7924 29.1548 29.5466 29.9666 30.0666 30.1496 30.2655 30.4138 30.5941 30.8058 31.0483 31.3209 31.5753 31.4006 31.257 31.1448 31.0644 31.0161 31 31 31 31.0161 31.0644 31.1448 31.257 31.4006 31.5753 31.7805 32.0156 32.28 32.5576 32.7567 32.9848 33.2415 33.5261 33.8378 34.176 34.5398 34.9285 34 33 32 31 30 29 28 27 26 25 24 23 22 21 20 19 18 17 16 15 14 13 12 11 10 9 8 7 6 5 4 3 2 1 0
0 1 2 3 4 5 6 7 8 9 10 11 12 13 14 15 16 17 18 19 20 21 22 23 24 25 26 27 28 29 30 31 32 33 34 35 36 37 38 39 40 39.6611 38.833 38.0132 37.2022 36.4006 35.609 34.8281 34.0588 33.3017 32.5576 31.8277 31.1127 30.4138 29.6985 29 28.2843 27.5862 26.8701 26.1725 25.4951 24.8395 24.2074 23.6008 23.0217 22.4722 21.9545 21.4009 20.8087 20.2485 19.7231 19.2354 18.7883 18.3848 18.0278 17.72 17.4642 17.2047 16.6433 16.1245 15.5563 14.8661 14.1421 13.4536 12.8062 12.2066 11.6619 11.1803 10.7703 10.4403 10.198 10.0499 9.84886 9.43398 8.94427 8.544 8.06226 7.61577 7.28011 7.07107 6.7082 6.32456 6.08276 5.83095 5.38516 5 4.24264 3.60555 2.82843 2.23607 2 2 2 1.41421 1 0 1 1 1.41421 2 2.23607 1.41421 1 1 1 1 1 1.41421 2.23607 2.82843 3.16228 3.60555 4 4 4 4 3.60555 2.82843 2.23607 2 2 2 2 2 2 1.41421 1 0 0 0 0 0 0 0 0 1 1.41421 2.23607 2.23607 2 2 2.23607 2.82843 3.16228 3.60555 3.16228 3 3 3 3 3 2.82843 2.23607 2 1.41421 1 1 1 1 0 0 0 0 0 0 1 1.41421 2 2.23607 2.23607 1.41421 1 1 1 0 0 0 0 0 1 1.41421 2.23607 2.23607 1.41421 1 1 1 1 1 1 1.41421 2 2 2.23607 1.41421 1 0 0 0 0 0 0 0 1 1 0 0 0 1 1.41421 2 2 2 2 2 2 2 2 2.23607 2.82843 3 3 2.82843 2.23607 2 2 2 2 2.23607 2.23607 1.41421 1 0 0 0 1 1 1 1.41421 2 2 2.23607 2.82843 3.16228 3.60555 4 3.60555 3.16228 3 3 3 3 2.23607 1.41421 1 1 0 0 0 0 0 0 0 1 2 3 4 5 6 6.32456 6.7082 7.2111 7.81025 8.48528 9.21954 10 10.8167 11.6619 12.53 13.4164 14.3178 15.2315 16.1555 17.088 18.0278 18.9737 19.9249 20.8806 21.8403 22.8035 23.7697 24.7386 25.7099 26.0192 26 26 26 26.0192 26.0768 26.1725 26.3059 26.4764 26.6833 26.9258 27.2029 27.5136 27.8568 28.2312 28.6356 29.0172 29.0689 29.1548 29.2746 29.4279 29.6142 29.8329 30.0832 30.3645 30.5941 30.4138 30.2655 30.1496 30.0666 30.0167 30 30 30 30.0167 30.0666 30.1496 30.2655 30.4138 30.5941 30.8058 31.0483 31.3209 31.5753 31.7805 32.0156 32.28 32.573 32.8938 33.2415 33.6155 34.0147 34 33 32 31 30 29 28 27 26 25 24 23 22 21 20 19 18 17 16 15 14 13 12 11 10 9 8 7 6 5 4 3 2 1 0
0 1 2 3 4 5 6 7 8 9 10 11 12 13 14 15 16 17 18 19 20 21 22 23 24 25 26 27 28 29 30 31 32 33 34 35 36 37 38 39 39.9625 39.1152 38.2753 37.4433 36.6197 35.805 35 34.2053 33.4216 32.6497 31.8904 31.1448 30.4138 29.6985 29 28.2843 27.5862 26.8701 26.1725 25.4558 24.7588 24.0832 23.4307 22.8035 22.2036 21.6333 21.095 20.5913 20 19.4165 18.868 18.3576 17.8885 17.4642 17.088 16.7631 16.4924 16.2788 15.8114 15.2643 14.7648 14.1421 13.4536 12.7279 12.0416 11.4018 10.8167 10.2956 9.84886 9.48683 9.21954 9.05539 8.94427 8.544 8.06226 7.61577 7.2111 6.7082 6.32456 6.08276 5.83095 5.38516 5.09902 5 4.47214 4.12311 3.60555 2.82843 2.23607 1.41421 1 1 1 1 0 0 1 2 2.23607 2.82843 2.82843 2.23607 2 2 2 2 2 2.23607 2.82843 3 3 3.16228 3 3 3 3 2.82843 2.23607 1.41421 1 1 1 1 1 1 1 0 0 0 0 0 0 1 1 0 0 1 1.41421 1.41421 1 1 1.41421 2 2.23607 2.82843 2.23607 2 2 2 2 2 2 1.41421 1 1 0 0 0 0 0 1 1 1 0 0 0 1 1 1.41421 2 1 0 0 0 0 1 1 1 0 0 1 1.41421 1.41421 1 0 0 0 0 0 0 1 1 1 1.41421 1 0 0 1 1 1 1 0 0 0 0 0 1 0 0 1 1 1 1 1 1 1 1 1 1.41421 2 2 2 2 1.41421 1 1 1 1 1.41421 2 1 0 0 1 0 0 0 0 1 1 1 1.41421 2.23607 2.82843 3 3 2.82843 2.23607 2 2 2 2 2 2 2 1.41421 1 1 0 0 0 0 0 1 2 3 4 5 6 7 7.61577 8.06226 8.60233 9.21954 9.8995 10.6301 11.4018 12.2066 13.0384 13.8924 14.7648 15.6525 16.5529 17.4642 18.3848 19.3132 20.2485 21.1896 22.1359 23.0868 24.0416 24.8395 25.0799 25.02 25 25 25 25.02 25.0799 25.1794 25.318 25.4951 25.7099 25.9615 26.2488 26.5707 26.9258 27.313 27.7308 28.0179 28.0713 28.1603 28.2843 28.4429 28.6356 28.8617 29.1204 29.4109 29.6142 29.4279 29.2746 29.1548 29.0689 29.0172 29 29 29 29.0172 29.0689 29.1548 29.2746 29.4279 29.6142 29.8329 30.0832 30.3645 30.5941 30.8058 31.0483 31.3209 31.6228 31.9531 32.311 32.6956 33.1059 33.541 33 32 31 30 29 28 27 26 25 24 23 22 21 20 19 18 17 16 15 14 13 12 11 10 9 8 7 6 5 4 3 2 1 0
0 1 2 3 4 5 6 7 8 9 10 11 12 13 14 15 16 17 18 19 20 21 22 23 24 25 26 27 28 29 30 31 32 33 34 35 36 37 38 39 39.4462 38.5876 37.7359 36.8917 36.0555 35.2278 34.4093 33.6006 32.8024 32.0156 31.241 30.4795 29.7321 29 28.2843 27.5862 26.8701 26.1725 25.4558 24.7588 24.0416 23.3452 22.6716 22.0227 21.4009 20.8087 20.2485 19.7231 19.2094 18.6011 18.0278 17.4929 17 16.5529 16.1555 15.8114 15.5242 15.2971 15 14.4222 13.8924 13.4164 12.7279 12.0416 11.3137 10.6301 10 9.43398 8.94427 8.544 8.24621 8.06226 8 7.61577 7.2111 6.7082 6.32456 5.83095 5.38516 5.09902 5 4.47214 4.12311 4 3.60555 3.16228 2.82843 2.23607 1.41421 1 0 0 0 0 0 1 1.41421 2.23607 2.23607 2 2 2 2 2 2 2 2 2 2 2 2 2.23607 2 2 2 2 2.23607 1.41421 1 0 0 0 0 0 0 0 0 1 1 1 1 1 1.41421 1.41421 1 0 0 1 1 0 0 1 1 1.41421 2 1.41421 1 1 1 1 1 1 1 0 0 0 1 1 1 1 1.41421 2 1.41421 1 1 0 0 0 1 1.41421 1 0 0 0 1 1.41421 2 1.41421 1 0 0 1 1 0 0 1 1 1 0 0 0 0 0 1 0 0 1 1.41421 2 2 1.41421 1 1 1 1 1 1.41421 1 0 0 0 0 0 0 0 0 0 0 1 1 1 1 1 1 0 0 0 0 1 1.41421 1 0 1 1.41421 1 1 1 0 0 0 0 1 1.41421 2 2 2 2 1.41421 1 1 1 1 1 1 1 1 0 0 0 0 0 0 1 1.41421 2.23607 3.16228 4.12311 5.09902 6.08276 7.07107 8.06226 8.94427 9.43398 10 10.6301 11.3137 12.0416 12.8062 13.6015 14.4222 15.2643 16.1245 17 17.8885 18.7883 19.6977 20.6155 21.5407 22.2036 22.8035 23.4307 24.0832 24.0832 24.0208 24 24 24 24.0208 24.0832 24.1868 24.3311 24.5153 24.7386 25 25.2982 25.632 26 26.4008 26.8328 27.0185 27.074 27.1662 27.2947 27.4591 27.6586 27.8927 28.1603 28.4605 28.6356 28.4429 28.2843 28.1603 28.0713 28.0179 28 28 28 28.0179 28.0713 28.1603 28.2843 28.4429 28.6356 28.8617 29.1204 29.4109 29.6142 29.8329 30.0832 30.3645 30.6757 31.0161 31.3847 31.7805 32.2025 32.6497 33 32 31 30 29 28 27 26 25 24 23 22 21 20 19 18 17 16 15 14 13 12 11 10 9 8 7 6 5 4 3 2 1 0
0 1 2 3 4 5 6 7 8 9 10 11 12 13 14 15 16 17 18 19 20 21 22 23 24 25 26 27 28 29 30 31 32 33 34 35 36 37 38 39 38.9487 38.0789 37.2156 36.3593 35.5106 34.6699 33.8378 33.0151 32.2025 31.4006 30.6105 29.8329 29.0689 28.3196 27.5862 26.8701 26.1725 25.4558 24.7588 24.0416 23.3452 22.6274 21.9317 21.2603 20.6155 20 19.4165 18.868 18.3576 17.8045 17.2047 16.6433 16.1245 15.6525 15.2315 14.8661 14.5602 14.3178 14.1421 13.6015 13.0384 12.53 12.0416 11.3137 10.6301 9.8995 9.21954 8.60233 8.06226 7.61577 7.28011 7.07107 7 6.7082 6.32456 5.83095 5.38516 5 4.47214 4.12311 4 3.60555 3.16228 3 2.82843 2.23607 2 1.41421 1 0 0 1 1 1 1 1.41421 2.23607 2.23607 1.41421 1 1 1 1 1 1 1 1 1 1 1 1 1.41421 1 1 1 1 1.41421 1 0 0 1 1 1 1 1 1 1 1.41421 2 2 2 2 2.23607 1.41421 1 0 0 1 0 0 0 0 0 1 1 1 0 0 0 0 0 0 0 0 1 1 1.41421 2 2 2 2.23607 2.82843 2.23607 2 1.41421 1 1 0 0 1 1 1 0 0 1 2 2.82843 2.23607 1.41421 1 0 0 0 0 1 1.41421 2 1.41421 1 1 1 1 0 0 0 1 1.41421 2.23607 2.82843 2.82843 2.23607 2 2 2 2 2 2.23607 1.41421 1 1 1 1 1 1 1 1 1 0 0 0 0 0 0 0 0 1 1 0 0 1 1 0 0 1 1.41421 2 1.41421 1 1 0 0 0 1 1 1 1 1 1 0 0 0 0 0 0 0 0 0 1 1 1 1 1 1.41421 2.23607 2.82843 3.60555 4.47214 5.38516 6.32456 7.28011 8.24621 9.21954 10.198 10.8167 11.4018 12.0416 12.7279 13.4536 14.2127 15 15.8114 16.6433 17.4929 18.3576 19.2354 19.7231 20.2485 20.8087 21.4009 22.0227 22.6716 23.1948 23.0868 23.0217 23 23 23 23.0217 23.0868 23.1948 23.3452 23.5372 23.7697 24.0416 24.3516 24.6982 25.0799 25.4951 25.9422 26.0192 26.0768 26.1725 26.3059 26.4764 26.6833 26.9258 27.2029 27.5136 27.6586 27.4591 27.2947 27.1662 27.074 27.0185 27 27 27 27.0185 27.074 27.1662 27.2947 27.4591 27.6586 27.8927 28.1603 28.4429 28.6356 28.8617 29.1204 29.4109 29.7321 30.0832 30.4631 30.8707 31.305 31.7648 32.249 32 31 30 29 28 27 26 25 24 23 22 21 20 19 18 17 16 15 14 13 12 11 10 9 8 7 6 5 4 3 2 1 0
0 1 2 3 4 5 6 7 8 9 10 11 12 13 14 15 16 17 18 19 20 21 22 23 24 25 26 27 28 29 30 31 32 33 34 35 36 37 38 39 38.4708 37.5899 36.7151 35.8469 34.9857 34.1321 33.2866 32.45 31.6228 30.8058 30 29.2062 28.4253 27.6586 26.9072 26.1725 25.4558 24.7588 24.0416 23.3452 22.6274 21.9317 21.2132 20.5183 19.8494 19.2094 18.6011 18.0278 17.4929 17 16.4012 15.8114 15.2643 14.7648 14.3178 13.9284 13.6015 13.3417 13.1529 12.8062 12.2066 11.6619 11.1803 10.6301 9.8995 9.21954 8.48528 7.81025 7.2111 6.7082 6.32456 6.08276 6 5.83095 5.38516 5 4.47214 4.12311 3.60555 3.16228 3 2.82843 2.23607 2 2 1.41421 1 1 0 0 1 1.41421 2 2 2 2.23607 2.23607 1.41421 1 0 0 0 0 0 0 0 0 0 0 0 0 1 0 0 0 0 1 1 0 0 1 2 2 2 2 2 2 2.23607 2.82843 3 3 3 2 1 0 0 1 0 0 1 1 1 0 0 0 0 0 0 0 0 1 1 1 1 1.41421 2 2.23607 2.82843 3 3 3.16228 3.60555 3.16228 2.82843 2.23607 2 1.41421 1 0 0 0 1 1 0 1 2 3 2.82843 2.23607 1.41421 1 0 0 1 1.41421 2.23607 2.82843 2.23607 2 2 2 1.41421 1 1 1 1.41421 2.23607 2.82843 3.60555 3.60555 3.16228 3 3 3 3 3 2.82843 2.23607 2 2 2 2 2 2 2 2 1.41421 1 1 1 1 0 0 0 1 1.41421 1.41421 1 0 0 1 1 0 0 1 2 2.23607 2 1.41421 1 1 0 0 0 0 0 0 0 0 0 0 0 0 0 0 0 1 1.41421 2 2 2 2 2.23607 2.82843 3.60555 4.24264 5 5.83095 6.7082 7.61577 8.544 9.48683 10.4403 11.4018 12.2066 12.8062 13.4536 14.1421 14.8661 15.6205 16.4012 17.088 17.4642 17.8885 18.3576 18.868 19.4165 20 20.6155 21.2603 21.9317 22.2036 22.0907 22.0227 22 22 22 22.0227 22.0907 22.2036 22.3607 22.561 22.8035 23.0868 23.4094 23.7697 24.1661 24.5967 25 25.02 25.0799 25.1794 25.318 25.4951 25.7099 25.9615 26.2488 26.5707 26.6833 26.4764 26.3059 26.1725 26.0768 26.0192 26 26 26 26.0192 26.0768 26.1725 26.3059 26.4764 26.6833 26.9258 27.2029 27.4591 27.6586 27.8927 28.1603 28.4605 28.7924 29.1548 29.5466 29.9666 30.4138 30.8869 31.3847 31.9061 31 30 29 28 27 26 25 24 23 22 21 20 19 18 17 16 15 14 13 12 11 10 9 8 7 6 5 4 3 2 1 0
0 1 2 3 4 5 6 7 8 9 10 11 12 13 14 15 16 17 18 19 20 21 22 23 24 25 26 27 28 29 30 31 32 33 34 35 36 37 38 38.833 38.0132 37.1214 36.2353 35.3553 34.4819 33.6155 32.7567 31.9061 31.0644 30.2324 29.4109 28.6007 27.8029 27.0185 26.2488 25.4951 24.7588 24.0416 23.3452 22.6274 21.9317 21.2132 20.5183 19.799 19.105 18.4391 17.8045 17.2047 16.6433 16.1245 15.6205 15 14.4222 13.8924 13.4164 13 12.6491 12.3693 12.1655 12.0416 11.4018 10.8167 10.2956 9.84886 9.21954 8.48528 7.81025 7.07107 6.40312 5.83095 5.38516 5.09902 5 5 4.47214 4.12311 3.60555 3.16228 2.82843 2.23607 2 2 1.41421 1 1 1 0 0 0 1 1.41421 2.23607 2.82843 3 3 2.23607 1.41421 1 0 0 1 1 1 1 1 1 1 1 1 1 0 0 0 1 1 0 0 1 1 0 1 2 3 3 3 3 3 3.16228 3.60555 4 4 3 2 1 0 1 1 0 1 1.41421 2 1.41421 1 0 0 0 1 1 1 1 1.41421 2 2 2 2.23607 2.82843 3.16228 3.60555 4 4 4.12311 4.47214 4.12311 3.60555 3.16228 2.82843 2.23607 1.41421 1 1 0 0 1 0 1 2 2.23607 2.82843 2.82843 2.23607 1.41421 1 1 1.41421 2.23607 2.82843 3.60555 3.16228 3 3 2.82843 2.23607 2 2 2 2.23607 2.82843 3.60555 4.24264 4.47214 4.12311 4 4 4 4 4 3.60555 3.16228 3 3 3 3 3 3 3 2.82843 2.23607 2 2 2 1.41421 1 1 1 1.41421 2.23607 2.23607 1.41421 1 0 1 1 0 0 1 1.41421 2.23607 2.82843 2.23607 2 1.41421 1 1 1 1 1 1 1 1 1 1 1 1 1 1 1 1.41421 2.23607 2.82843 3 3 3 3.16228 3.60555 4.24264 5 5.65685 6.40312 7.2111 8.06226 8.94427 9.84886 10.7703 11.7047 12.6491 13.6015 14.2127 14.8661 15.2971 15.5242 15.8114 16.1555 16.5529 17 17.4929 18.0278 18.6011 19.2094 19.8494 20.5183 21.2132 21.2132 21.095 21.0238 21 21 21 21.0238 21.095 21.2132 21.3776 21.587 21.8403 22.1359 22.4722 22.8473 23.2594 23.7065 24 24.0208 24.0832 24.1868 24.3311 24.5153 24.7386 25 25.2982 25.632 25.7099 25.4951 25.318 25.1794 25.0799 25.02 25 25 25 25.02 25.0799 25.1794 25.318 25.4951 25.7099 25.9615 26.2488 26.4764 26.6833 26.9258 27.2029 27.5136 27.8568 28.2312 28.6356 29.0689 29.5296 30.0167 30.5287 31.0644 31 30 29 28 27 26 25 24 23 22 21 20 19 18 17 16 15 14 13 12 11 10 9 8 7 6 5 4 3 2 1 0
0 1 2 3 4 5 6 7 8 9 10 11 12 13 14 15 16 17 18 19 20 21 22 23 24 25 26 27 28 29 30 31 32 33 34 35 36 37 38 38.2753 37.4433 36.6197 35.7771 34.8855 34 33.121 32.249 31.3847 30.5287 29.6816 28.8444 28.0179 27.2029 26.4008 25.6125 24.8395 24.0832 23.3452 22.6274 21.9317 21.2132 20.5183 19.799 19.105 18.3848 17.6918 17.0294 16.4012 15.8114 15.2643 14.7648 14.2127 13.6015 13.0384 12.53 12.083 11.7047 11.4018 11.1803 11.0454 10.6301 10 9.43398 8.94427 8.48528 7.81025 7.07107 6.40312 5.65685 5 4.47214 4.12311 4 4 3.60555 3.16228 2.82843 2.23607 2 1.41421 1 1 1 0 0 0 0 0 1 1.41421 2.23607 2.82843 2.82843 2.23607 2 2 1 0 0 1 1.41421 2 2 2 2 2 2 2 2 1 0 0 0 1 1.41421 1 0 1 1 0 1 2 3 4 4 4 4 4.12311 4.47214 5 4 3 2 1 0 0 0 0 1 2 2.82843 2.23607 1.41421 1 1 1 1.41421 2 2 2 2 2.23607 2.82843 3 3.16228 3.60555 4.12311 4.47214 5 5 5.09902 5.38516 5 4.47214 4.12311 3.60555 2.82843 2.23607 2 1.41421 1 0 0 0 1 1 1.41421 2.23607 3.16228 2.82843 2.23607 2 2 2.23607 2.82843 3.60555 4.24264 4.12311 4 4 3.60555 3.16228 3 3 3 3.16228 3.60555 4.24264 5 5.38516 5.09902 5 5 5 5 5 4.47214 4.12311 4 4 4 4 4 4 4 3.60555 3.16228 3 3 2.82843 2.23607 2 2 2 2.23607 2.82843 2.82843 2 1 0 0 1 1 0 0 1 1.41421 2.23607 2.82843 2.82843 2.23607 2 2 2 2 2 2 2 2 2 2 2 2 2 2 2 2.23607 2.82843 3.60555 4 4 4 4.12311 4.47214 5 5.65685 6.40312 7.07107 7.81025 8.60233 9.43398 10.2956 11.1803 12.0416 12.7279 13.4536 14.0357 14.1421 14.3178 14.5602 14.8661 15.2315 15.6525 16.1245 16.6433 17.2047 17.8045 18.4391 19.105 19.799 20.3961 20.2237 20.0998 20.025 20 20 20 20.025 20.0998 20.2237 20.3961 20.6155 20.8806 21.1896 21.5407 21.9317 22.3607 22.8254 23 23.0217 23.0868 23.1948 23.3452 23.5372 23.7697 24.0416 24.3516 24.6982 24.7386 24.5153 24.3311 24.1868 24.0832 24.0208 24 24 24 24.0208 24.0832 24.1868 24.3311 24.5153 24.7386 25 25.2982 25.4951 25.7099 25.9615 26.2488 26.5707 26.9258 27.313 27.7308 28.178 28.6531 29.1548 29.6816 30.2324 30.8058 30 29 28 27 26 25 24 23 22 21 20 19 18 17 16 15 14 13 12 11 10 9 8 7 6 5 4 3 2 1 0
0 1 2 3 4 5 6 7 8 9 10 11 12 13 14 15 16 17 18 19 20 21 22 23 24 25 26 27 28 29 30 31 32 33 34 35 36 37 38 37.7359 36.8917 36.0555 35.2278 34.4093 33.541 32.6497 31.7648 30.8869 30.0167 29.1548 28.3019 27.4591 26.6271 25.807 25 24.2074 23.4307 22.6716 21.9317 21.2132 20.5183 19.799 19.105 18.3848 17.6918 16.9706 16.2788 15.6205 15 14.4222 13.8924 13.4164 12.8062 12.2066 11.6619 11.1803 10.7703 10.4403 10.198 10.0499 9.8995 9.21954 8.60233 8.06226 7.61577 7.07107 6.40312 5.65685 5 4.24264 3.60555 3.16228 3 3 2.82843 2.23607 2 1.41421 1 1 0 0 0 0 1 1 1 1 1.41421 2.23607 2.82843 2.82843 2.23607 1.41421 1 1 1 0 1 1.41421 2.23607 2.82843 3 3 3 3 3 3 2.23607 1.41421 1 1 1 1.41421 2 1 0 0 1 0 1 2 3 4 5 5 5 5.09902 5.38516 5.09902 4.12311 3.16228 2.23607 1.41421 1 0 0 1 1.41421 2.23607 3.16228 2.82843 2.23607 2 2 2 2.23607 2.23607 1.41421 1 1 1.41421 2.23607 3.16228 4.12311 4.47214 5 5.38516 5.83095 6 6.08276 6.32456 5.83095 5.38516 5 4.24264 3.60555 3.16228 2.82843 2.23607 1.41421 1 0 0 0 0 1 2 3 3.60555 3.16228 3 3 3.16228 3.60555 4.24264 5 5.09902 5 5 4.47214 4.12311 4 4 4 4.12311 4.47214 5 5.65685 6.32456 6.08276 6 6 6 6 5.83095 5.38516 5.09902 5 5 5 5 5 5 5 4.47214 4.12311 4 4 3.60555 3.16228 3 3 3 3.16228 3.60555 3.16228 2.23607 1.41421 1 0 0 1 1 0 0 1 1.41421 2.23607 2.82843 3.16228 3 3 3 3 3 3 3 3 3 3 2.23607 1.41421 1 1 1 1.41421 2.23607 2.82843 3.60555 4.47214 5 5.09902 5.38516 5.83095 6.40312 7.07107 7.61577 8.06226 8.60233 9.21954 9.8995 10.6301 11.3137 12.0416 12.7279 13.0384 13.1529 13.3417 13.6015 13.9284 14.3178 14.7648 15.2643 15.8114 16.4012 17.0294 17.6918 18.3848 19.105 19.4165 19.2354 19.105 19.0263 19 19 19 19.0263 19.105 19.2354 19.4165 19.6469 19.9249 20.2485 20.6155 21.0238 21.4709 21.9545 22 22.0227 22.0907 22.2036 22.3607 22.561 22.8035 23.0868 23.4094 23.7697 23.7697 23.5372 23.3452 23.1948 23.0868 23.0217 23 23 23 23.0217 23.0868 23.1948 23.3452 23.5372 23.7697 24.0416 24.3311 24.5153 24.7386 25 25.2982 25.632 26 26.4008 26.8328 27.2947 27.7849 28.3019 28.8444 29.4109 30 30 29 28 27 26 25 24 23 22 21 20 19 18 17 16 15 14 13 12 11 10 9 8 7 6 5 4 3 2 1 0
0 1 2 3 4 5 6 7 8 9 10 11 12 13 14 15 16 17 18 19 20 21 22 23 24 25 26 27 28 29 30 31 32 33 34 35 36 37 38 37.2156 36.3593 35.5106 34.6699 33.8378 33.0151 32.2025 31.305 30.4138 29.5296 28.6531 27.7849 26.9258 26.0768 25.2389 24.4131 23.6008 22.8035 22.0227 21.2603 20.5183 19.799 19.105 18.3848 17.6918 16.9706 16.2788 15.5563 14.8661 14.2127 13.6015 13.0384 12.53 12.0416 11.4018 10.8167 10.2956 9.84886 9.48683 9.21954 9.05539 9 8.48528 7.81025 7.2111 6.7082 6.32456 5.65685 5 4.24264 3.60555 2.82843 2.23607 2 2 2 1.41421 1 1 0 0 0 1 1 1 1.41421 2 2 2 2.23607 2.23607 2 2 1.41421 1 0 0 1 0 0 1 2 3 4 4 4 4 4 3.60555 2.82843 2.23607 2 2 2 2.23607 2.23607 1.41421 1 0 1 0 1 2 3 4 5 6 6 6.08276 6.32456 5.38516 4.47214 3.60555 2.82843 2.23607 1.41421 1 1 1.41421 2.23607 2.82843 3.60555 3.60555 3.16228 3 3 3 2.23607 1.41421 1 0 0 1 2 2.82843 3.60555 4.47214 5.38516 6.32456 6.7082 7 7.07107 7.2111 6.7082 6.32456 5.65685 5 4.47214 4.12311 3.60555 2.82843 2.23607 1.41421 1 1 0 0 1 2 3 4 4.12311 4 4 4.12311 4.47214 5 5.65685 6.08276 6 5.83095 5.38516 5.09902 5 5 5 5.09902 5.38516 5.83095 6.40312 7.07107 7.07107 7 7 7 7 6.7082 6.32456 6.08276 6 6 6 6 6 6 5.83095 5.38516 5.09902 5 5 4.47214 4.12311 4 4 4 4.12311 4.47214 3.60555 2.82843 2.23607 1.41421 1 0 0 1 1 0 0 1 1.41421 2.23607 3.16228 4 4 4 4 4 4 4 4 4 3 2 1 0 0 0 1 1.41421 2.23607 3.16228 4 4.12311 4.47214 5 5.38516 5.83095 6.32456 6.7082 7.2111 7.81025 8.48528 9.21954 9.8995 10.6301 11.3137 12 12.0416 12.1655 12.3693 12.6491 13 13.4164 13.8924 14.4222 15 15.6205 16.2788 16.9706 17.6918 18.3848 18.4391 18.2483 18.1108 18.0278 18 18 18 18.0278 18.1108 18.2483 18.4391 18.6815 18.9737 19.3132 19.6977 20.1246 20.5913 21 21 21.0238 21.095 21.2132 21.3776 21.587 21.8403 22.1359 22.4722 22.8473 22.8035 22.561 22.3607 22.2036 22.0907 22.0227 22 22 22 22.0227 22.0907 22.2036 22.3607 22.561 22.8035 23.0868 23.3452 23.5372 23.7697 24.0416 24.3516 24.6982 25.0799 25.4951 25.9422 26.4197 26.9258 27.4591 28.0179 28.6007 29.2062 29.8329 29 28 27 26 25 24 23 22 21 20 19 18 17 16 15 14 13 12 11 10 9 8 7 6 5 4 3 2 1 0
0 1 2 3 4 5 6 7 8 9 10 11 12 13 14 15 16 17 18 19 20 21 22 23 24 25 26 27 28 29 30 31 32 33 34 35 36 37 37.5899 36.7151 35.8469 34.9857 34.1321 33.2866 32.45 31.6228 30.8058 29.9666 29.0689 28.178 27.2947 26.4197 25.5539 24.6982 23.8537 23.0217 22.2036 21.4009 20.6155 19.8494 19.105 18.3848 17.6918 16.9706 16.2788 15.5563 14.8661 14.1421 13.4536 12.8062 12.2066 11.6619 11.1803 10.6301 10 9.43398 8.94427 8.544 8.24621 8.06226 8 7.81025 7.07107 6.40312 5.83095 5.38516 5 4.24264 3.60555 2.82843 2.23607 1.41421 1 1 1 1 0 0 0 1 1 1.41421 2 2 2.23607 2.82843 3 2.82843 2.23607 1.41421 1 1 1 0 0 0 0 1 0 1 2 3 4 5 5 5 5 4.24264 3.60555 3.16228 3 3 3 2.23607 1.41421 1 0 0 1 0 1 2 3 4 5 6 7 7.07107 6.7082 5.83095 5 4.24264 3.60555 2.82843 2.23607 2 2 2.23607 2.82843 3.60555 4.24264 4.47214 4.12311 4 4 3 2 1 0 0 0 1 1.41421 2.23607 3.16228 4.12311 5.09902 6.08276 7.07107 8 8.06226 8.06226 7.61577 7.07107 6.40312 5.83095 5.38516 5 4.24264 3.60555 2.82843 2.23607 2 1.41421 1 1 1.41421 2.23607 3.16228 4.12311 5.09902 5 5 5.09902 5.38516 5.83095 6.40312 7.07107 7 6.7082 6.32456 6.08276 6 6 6 6.08276 6.32456 6.7082 7.2111 7.81025 8.06226 8 8 8 8 7.61577 7.28011 7.07107 7 7 7 7 7 7 6.7082 6.32456 6.08276 6 5.83095 5.38516 5.09902 5 5 5 5.09902 5 4.24264 3.60555 2.82843 2.23607 1.41421 1 0 0 1 1 0 0 1 2 3 4 5 5 5 5 5 5 5 4 3 2 1 0 0 0 0 1 2 3 3 3.16228 3.60555 4.12311 4.47214 5 5.38516 5.83095 6.40312 7.07107 7.81025 8.48528 9.21954 9.8995 10.6301 11 11.0454 11.1803 11.4018 11.7047 12.083 12.53 13.0384 13.6015 14.2127 14.8661 15.5563 16.2788 16.9706 17.6918 17.4642 17.2627 17.1172 17.0294 17 17 17 17.0294 17.1172 17.2627 17.4642 17.72 18.0278 18.3848 18.7883 19.2354 19.7231 20 20 20.025 20.0998 20.2237 20.3961 20.6155 20.8806 21.1896 21.5407 21.9317 21.8403 21.587 21.3776 21.2132 21.095 21.0238 21 21 21 21.0238 21.095 21.2132 21.3776 21.587 21.8403 22.1359 22.3607 22.561 22.8035 23.0868 23.4094 23.7697 24.1661 24.5967 25.0599 25.5539 26.0768 26.6271 27.2029 27.8029 28.4253 29.0689 29 28 27 26 25 24 23 22 21 20 19 18 17 16 15 14 13 12 11 10 9 8 7 6 5 4 3 2 1 0
0 1 2 3 4 5 6 7 8 9 10 11 12 13 14 15 16 17 18 19 20 21 22 23 24 25 26 27 28 29 30 31 32 33 34 35 36 37 37.0135 36.2353 35.3553 34.4819 33.6155 32.7567 31.9061 31.0644 30.2324 29.4109 28.6007 27.7308 26.8328 25.9422 25.0599 24.1868 23.3238 22.4722 21.6333 20.8087 20 19.2094 18.4391 17.6918 16.9706 16.2788 15.5563 14.8661 14.1421 13.4536 12.7279 12.0416 11.4018 10.8167 10.2956 9.84886 9.21954 8.60233 8.06226 7.61577 7.28011 7.07107 7 7 6.40312 5.65685 5 4.47214 4.12311 3.60555 2.82843 2.23607 1.41421 1 0 0 0 0 0 1 1 1.41421 2 2.23607 2.82843 3 3.16228 3.60555 2.82843 2.23607 1.41421 1 0 0 1 0 1 1 0 0 0 1 2 3 4 5 6 6 5.65685 5 4.47214 4.12311 4 4 3 2 1 0 0 0 0 0 1 2 3 4 5 6 7 8 7.2111 6.40312 5.65685 5 4.24264 3.60555 3.16228 3 3 3.16228 3.60555 4.24264 5 5 4.47214 4.12311 4 3 2 1 0 1 0 0 1 2 3 4 5 6 7 8 9 8.94427 8.48528 7.81025 7.2111 6.7082 6.32456 5.65685 5 4.24264 3.60555 3.16228 2.82843 2.23607 2 2 2.23607 2.82843 3.60555 4.47214 5.38516 6 6 6.08276 6.32456 6.7082 7.2111 7.81025 8 7.61577 7.28011 7.07107 7 7 7 7.07107 7.28011 7.61577 8.06226 8.60233 9.05539 9 9 9 8.94427 8.544 8.24621 8.06226 8 8 8 8 8 8 7.61577 7.28011 7.07107 7 6.7082 6.32456 6.08276 6 6 6 6.08276 5.65685 5 4.24264 3.60555 2.82843 2.23607 1.41421 1 0 0 1 1 0 1 2 3 4 5 6 6 6 6 6 5 4 3 2 1 0 0 1 0 1 2 2 2 2.23607 2.82843 3.16228 3.60555 4.12311 4.47214 5 5.65685 6.40312 7.07107 7.81025 8.48528 9.21954 10 10 10.0499 10.198 10.4403 10.7703 11.1803 11.6619 12.2066 12.8062 13.4536 14.1421 14.8661 15.5563 16.2788 16.7631 16.4924 16.2788 16.1245 16.0312 16 16 16 16.0312 16.1245 16.2788 16.4924 16.7631 17.088 17.4642 17.8885 18.3576 18.868 19 19 19.0263 19.105 19.2354 19.4165 19.6469 19.9249 20.2485 20.6155 21.0238 20.8806 20.6155 20.3961 20.2237 20.0998 20.025 20 20 20 20.025 20.0998 20.2237 20.3961 20.6155 20.8806 21.1896 21.3776 21.587 21.8403 22.1359 22.4722 22.8473 23.2594 23.7065 24.1868 24.6982 25.2389 25.807 26.4008 27.0185 27.6586 28.3196 29 28 27 26 25 24 23 22 21 20 19 18 17 16 15 14 13 12 11 10 9 8 7 6 5 4 3 2 1 0
0 1 2 3 4 5 6 7 8 9 10 11 12 13 14 15 16 17 18 19 20 21 22 23 24 25 26 27 28 29 30 31 32 33 34 35 36 37 36.4006 35.609 34.8281 34 33.121 32.249 31.3847 30.5287 29.6816 28.8444 28.0179 27.2029 26.4008 25.4951 24.5967 23.7065 22.8254 21.9545 21.095 20.2485 19.4165 18.6011 17.8045 17.0294 16.2788 15.5563 14.8661 14.1421 13.4536 12.7279 12.0416 11.3137 10.6301 10 9.43398 8.94427 8.48528 7.81025 7.2111 6.7082 6.32456 6.08276 6 6 5.65685 5 4.24264 3.60555 3.16228 2.82843 2.23607 1.41421 1 0 0 0 0 1 1 1.41421 2 2.23607 2.82843 3 3 3 3 3.16228 2.23607 1.41421 1 0 0 0 1 0 1 1.41421 1 1 1 1.41421 2.23607 3.16228 4.12311 5.09902 6.08276 7 6.40312 5.83095 5.38516 5.09902 5 4 3 2 1 0 1 1 0 0 1 2 3 4 5 6 7 8 7.81025 7.07107 6.40312 5.65685 5 4.47214 4.12311 4 4 4.12311 4.47214 5 5 4.24264 3.60555 3.16228 3 3 2 1 0 0 0 0 1 2 3 4 5 6 7 8 9 9.84886 9.21954 8.60233 8.06226 7.61577 7.07107 6.40312 5.65685 5 4.47214 4.12311 3.60555 3.16228 3 3 3.16228 3.60555 4.24264 5 5.83095 6.7082 7 7.07107 7.28011 7.61577 8.06226 8.60233 8.94427 8.544 8.24621 8.06226 8 8 8 8.06226 8.24621 8.544 8.94427 9.43398 10 10 10 10 9.84886 9.48683 9.21954 9.05539 9 9 9 9 9 8.94427 8.544 8.24621 8.06226 8 7.61577 7.28011 7.07107 7 7 7 7.07107 6.40312 5.65685 5 4.24264 3.60555 2.82843 2.23607 1.41421 1 0 0 0 0 1 2 3 4 5 6 7 7 7 6 5 4 3 2 1 0 0 0 0 1 1 1 1 1.41421 2 2.23607 2.82843 3.16228 3.60555 4.24264 5 5.65685 6.40312 7.07107 7.81025 8.60233 9 9 9.05539 9.21954 9.48683 9.84886 10.2956 10.8167 11.4018 12.0416 12.7279 13.4536 14.1421 14.8661 15.6205 15.8114 15.5242 15.2971 15.1327 15.0333 15 15 15 15.0333 15.1327 15.2971 15.5242 15.8114 16.1555 16.5529 17 17.4929 18 18 18 18.0278 18.1108 18.2483 18.4391 18.6815 18.9737 19.3132 19.6977 20.1246 19.9249 19.6469 19.4165 19.2354 19.105 19.0263 19 19 19 19.0263 19.105 19.2354 19.4165 19.6469 19.9249 20.2237 20.3961 20.6155 20.8806 21.1896 21.5407 21.9317 22.3607 22.8254 23.3238 23.8537 24.4131 25 25.6125 26.2488 26.9072 27.5862 28.2843 28 27 26 25 24 23 22 21 20 19 18 17 16 15 14 13 12 11 10 9 8 7 6 5 4 3 2 1 0
0 1 2 3 4 5 6 7 8 9 10 11 12 13 14 15 16 17 18 19 20 21 22 23 24 25 26 27 28 29 30 31 32 33 34 35 36 36.6197 35.805 35 34.2053 33.4216 32.6497 31.7648 30.8869 30.0167 29.1548 28.3019 27.4591 26.6271 25.807 25 24.1661 23.2594 22.3607 21.4709 20.5913 19.7231 18.868 18.0278 17.2047 16.4012 15.6205 14.8661 14.1421 13.4536 12.7279 12.0416 11.3137 10.6301 9.8995 9.21954 8.60233 8.06226 7.61577 7.07107 6.40312 5.83095 5.38516 5.09902 5 5 5 4.24264 3.60555 2.82843 2.23607 2 1.41421 1 0 0 1 1 1 1.41421 2 2.23607 2.23607 2 2 2 2 2 2 2.23607 2 1 0 0 1 0 1 0 1 2 2 2 2 2.23607 2.82843 3.60555 4.47214 5.38516 6.32456 7.28011 7.2111 6.7082 6.32456 6 5 4 3 2 1 0 0 1 0 1 1.41421 2.23607 3.16228 4.12311 5.09902 6.08276 7.07107 8.06226 8.48528 7.81025 7.07107 6.40312 5.83095 5.38516 5.09902 5 5 5.09902 5.38516 5.38516 4.47214 3.60555 2.82843 2.23607 2 2 2 1.41421 1 0 0 1 1.41421 2.23607 3.16228 4.12311 5.09902 6.08276 7.07107 8.06226 9.05539 10.0499 10 9.43398 8.94427 8.48528 7.81025 7.07107 6.40312 5.83095 5.38516 5 4.47214 4.12311 4 4 4.12311 4.47214 5 5.65685 6.40312 7.2111 8 8.06226 8.24621 8.544 8.94427 9.43398 9.84886 9.48683 9.21954 9.05539 9 9 9 9.05539 9.21954 9.48683 9.84886 10.2956 10.8167 11 11 11 10.7703 10.4403 10.198 10.0499 10 10 10 10 10 9.84886 9.48683 9.21954 9.05539 8.94427 8.544 8.24621 8.06226 8 8 8 7.81025 7.07107 6.40312 5.65685 5 4.24264 3.60555 2.82843 2.23607 1.41421 1 1 1 1 1.41421 2.23607 3.16228 4.12311 5.09902 6.08276 7.07107 8 7.07107 6.08276 5.09902 4.12311 3.16228 2.23607 1.41421 1 1 1 1 1 0 0 0 1 1 1.41421 2 2.23607 2.82843 3.60555 4.24264 5 5.65685 6.40312 7.2111 8.06226 8 8 8.06226 8.24621 8.544 8.94427 9.43398 10 10.6301 11.3137 12.0416 12.7279 13.4536 14.2127 15 14.8661 14.5602 14.3178 14.1421 14.0357 14 14 14 14.0357 14.1421 14.3178 14.5602 14.8661 15.2315 15.6525 16.1245 16.6433 17 17 17 17.0294 17.1172 17.2627 17.4642 17.72 18.0278 18.3848 18.7883 19.2354 18.9737 18.6815 18.4391 18.2483 18.1108 18.0278 18 18 18 18.0278 18.1108 18.2483 18.4391 18.6815 18.9737 19.2354 19.4165 19.6469 19.9249 20.2485 20.6155 21.0238 21.4709 21.9545 22.4722 23.0217 23.6008 24.2074 24.8395 25.4951 26.1725 26.8701 27.5862 28 27 26 25 24 23 22 21 20 19 18 17 16 15 14 13 12 11 10 9 8 7 6 5 4 3 2 1 0
