0 1 2 3 4 5 6 7 8 9 10 11 12 13 14 15 16 17 18 19 20 21 22 23 24 25 26 27 28 29 28.1603 27.2029 26.2488 25.2982 24.3516 23.4094 22.4722 21.5407 20.6155 19.6977 18.7883 17.8885 17 16.1245 15.2315 14.3178 13.3417 12.3693 11.4018 10.4403 9.48683 8.544 7.61577 6.7082 5.83095 5 4.24264 3.60555 3.16228 3 3 3.16228 2.82843 2.23607 2 2 2.23607 2.82843 2 1 0 1 0 1 2 2 2.23607 2.82843 3.60555 4.47214 5 4.24264 3.60555 3 2 1 0 0 0 1 2 3 3 3.16228 3.60555 3.16228 3 3 3 2 1 0 0 1 2 1 0 1 2 2.82843 3.60555 3.16228 2.23607 1.41421 1 1 1 0 0 1 2 3 4 5 6 7 8 7.81025 7.2111 6.7082 6.32456 6.08276 6 6 6 5.65685 5 4.47214 4.12311 4 4 4.12311 4.47214 4.12311 4 4 4.12311 4.47214 5 5 4.12311 3.16228 2.23607 1.41421 1 1 0 0 0 1 0 1 0 1 1.41421 2.23607 2.82843 3.60555 3.60555 2.82843 2.23607 2 2 2 2.23607 2.82843 3.60555 4.47214 5 5 5.09902 5.38516 5.83095 6.40312 7.07107 7.81025 8.48528 9.21954 9.8995 10 9.21954 8.48528 7.81025 7.2111 6.40312 5.65685 5 4.24264 3.60555 3.16228 3 3 3 3.16228 3.60555 3 2 1 0 0 1 2 3 4 4 4.12311 4.47214 5 5 5.09902 5.38516 5.83095 6.40312 6.32456 6 5 4 3 2 1 0 0 0 0 1 2 3 4 4.47214 4.12311 3.60555 3.16228 3 3 3 3 2.82843 2 1 0 0 0 0 0 1 1.41421 1.41421 1 0 0 1 1.41421 2.23607 2.82843 2.23607 1.41421 1 0 0 1 1.41421 2.23607 3.16228 4.12311 5 5.65685 5.38516 4.47214 3.60555 2.82843 2.23607 1.41421 1 0 1 0 0 0 1 0 0 1 1.41421 2.23607 2 2 2.23607 2.82843 2.23607 1.41421 1 1 1 1.41421 1 0 0 1 1 1 0 0 1 0 0 0 1 1 0 0 0 0 0 0 1 1 1 1 1 0 0 1 2 3 4 5 6 7 8 9 8.60233 8.06226 7.61577 7.28011 7.07107 7 6.7082 6.32456 6.08276 6 5.09902 4.12311 3.16228 2.23607 1.41421 1 0 0 1 2 2.23607 1.41421 1 1 1 1 1.41421 2.23607 2 1 0 0 0 1 1.41421 2.23607 2.82843 3.60555 4.12311 4.47214 5 5.65685 6.40312 7.2111 8.06226 8.94427 9.84886 10.7703 11.7047 12.6491 13.6015 14.5602 15.5242 16.4924 17.4642 18.4391 19.4165 20.3961 21.3776 22.3607 23.3452 24.3311 25.318 26.3059 27.2947 28.2843 29.2746 30.2655 31.257 32.249 33.2415 34.2345 35.2278 36.2215 37.2156 37.3363 37 36.6879 36.4006 36.1386 35.4401 34.4819 33.5261 32.573 31.6228 30.6757 29.7321 28.7924 27.8568 26.9258 26 25.0799 24.1661 23.2594 22.3607 21.4709 20.5913 19.7231 18.868 18.0278 17.2047 16.4012 15.6205 14.8661 14.1421 13.4536 12.8062 12.2066 11.6619 11.1803 10.7703 10.4403 10.198 10.0499 10 10 10.0499 10.198 10.4403 10.7703 11.1803 11.6619 12.2066 12.8062 13.4536 14.1421 14.8661 15.6205 16.4012 17.2047 18.0278 18.4391 17.4642 16.4924 15.5242 14.5602 13.6015 12.6491 11.7047 10.7703 9.84886 8.94427 8.06226 7.2111 6.40312 5.65685 5 4.47214 4.12311 4 3.16228 2.23607 1.41421 1 1 1.41421 2.23607 3.16228 4.12311 5.09902 6.08276 7.07107 8.06226 9 8 7 6 5 4 3 2 1 0
0 1 2 3 4 5 6 7 8 9 10 11 12 13 14 15 16 17 18 19 20 21 22 23 24 25 26 27 28 29 28.4605 27.5136 26.5707 25.632 24.6982 23.7697 22.8473 21.9317 21.0238 20.1246 19.2354 18.3576 17.4642 16.4924 15.5242 14.5602 13.6015 12.6491 11.7047 10.7703 9.84886 8.94427 8.06226 7.2111 6.40312 5.65685 5 4.47214 4.12311 4 4 4.12311 3.60555 3.16228 3 3 3.16228 3 2 1 0 0 0 1 2 3 3.16228 3.60555 4.24264 5 5.65685 5 4.12311 3.16228 2.23607 1.41421 1 0 0 1 2 3 4 3.60555 2.82843 2.23607 2 2 2.23607 2.23607 1.41421 1 1 1.41421 2 1 0 1 1.41421 2.23607 3.16228 2.82843 2.23607 2 1 0 0 0 1 1.41421 2.23607 3.16228 4.12311 5.09902 6.08276 7.07107 7.81025 7.07107 6.40312 5.83095 5.38516 5.09902 5 5 5 5 4.24264 3.60555 3.16228 3 3 3.16228 3.60555 4.24264 5 5 5.09902 5.38516 5.38516 4.47214 3.60555 2.82843 2 1 0 0 0 1 0 0 0 0 0 0 1 1.41421 2.23607 3.16228 4.12311 3.60555 3.16228 3 3 3 3.16228 3.60555 4 4.12311 4 4 4.12311 4.47214 5 5.65685 6.40312 7.07107 7.81025 8.48528 9.21954 9.43398 8.60233 7.81025 7.07107 6.40312 5.83095 5.38516 5.09902 5 4.47214 4.12311 4 4 4 4 4.12311 3.16228 2.23607 1.41421 1 1 1.41421 2.23607 3.16228 4.12311 5 4.47214 4.12311 4 4 4.12311 4.47214 5 5.65685 5.38516 5.09902 5 4.12311 3.16228 2.23607 1.41421 1 0 0 0 1 2 3 4 3.60555 3.16228 2.82843 2.23607 2 2 2 2 2.23607 2.23607 1.41421 1 1 0 0 0 0 1 2 1.41421 1 0 0 1 1.41421 2.23607 2.82843 2 1 0 0 0 1 2 2.82843 3.60555 4.24264 5 5.65685 5 4.24264 3.60555 2.82843 2 1 0 0 0 0 0 1 1 1 1.41421 2 2 2.23607 2.82843 3.16228 3 2 1 0 0 0 1 1 0 0 1 0 0 1 1 0 0 0 0 1 1 0 0 1 0 0 0 0 0 0 0 0 0 1 1.41421 2.23607 3.16228 4.12311 5.09902 6.08276 7.07107 8.06226 8.48528 7.81025 7.2111 6.7082 6.32456 6.08276 6 5.83095 5.38516 5.09902 5 5 4 3 2 1 0 0 0 1 2 2 1 0 0 0 0 1 2 2.23607 1.41421 1 1 1 1.41421 2.23607 2.82843 3.60555 4.24264 5 5.38516 5.83095 6.40312 7.07107 7.81025 8.60233 9.43398 10.2956 11.1803 12.083 13 13.9284 14.8661 15.8114 16.7631 17.72 18.6815 19.6469 20.6155 21.587 22.561 23.5372 24.5153 25.4951 26.4764 27.4591 28.4429 29.4279 30.4138 31.4006 32.3883 33.3766 34.3657 35.3553 36.3456 36.7696 36.4006 36.0555 35.7351 35.4401 35.171 34.9285 34.2053 33.2415 32.28 31.3209 30.3645 29.4109 28.4605 27.5136 26.5707 25.632 24.6982 23.7697 22.8473 21.9317 21.0238 20.1246 19.2354 18.3576 17.4929 16.6433 15.8114 15 14.2127 13.4536 12.7279 12.0416 11.4018 10.8167 10.2956 9.84886 9.48683 9.21954 9.05539 9 9 9.05539 9.21954 9.48683 9.84886 10.2956 10.8167 11.4018 12.0416 12.7279 13.4536 14.2127 15 15.8114 16.6433 17.4929 18.3576 17.72 16.7631 15.8114 14.8661 13.9284 13 12.083 11.1803 10.2956 9.43398 8.60233 7.81025 7.07107 6.40312 5.83095 5.38516 5.09902 4.47214 3.60555 2.82843 2.23607 2 2 2.23607 2.82843 3.60555 4.47214 5.38516 6.32456 7.28011 8.24621 9 8 7 6 5 4 3 2 1 0
0 1 2 3 4 5 6 7 8 9 10 11 12 13 14 15 16 17 18 19 20 21 22 23 24 25 26 27 28 29 28.7924 27.8568 26.9258 26 25.0799 24.1661 23.2594 22.3607 21.4709 20.5913 19.6469 18.6815 17.72 16.7631 15.8114 14.8661 13.9284 13 12.083 11.1803 10.2956 9.43398 8.60233 7.81025 7.07107 6.40312 5.83095 5.38516 5.09902 5 5 5 4.47214 4.12311 4 4 4 3 2 1 0 0 1 1.41421 2.23607 3.16228 4.12311 4.47214 5 5.65685 6.32456 5.38516 4.47214 3.60555 2.82843 2.23607 1.41421 1 1 1.41421 2.23607 3.16228 4.12311 3.16228 2.23607 1.41421 1 1 1.41421 2.23607 2.23607 2 2 2.23607 2 1 0 0 1 2 3 2.23607 1.41421 1 1 0 0 1 1.41421 2.23607 2.82843 3.60555 4.47214 5.38516 6.32456 7.28011 7.2111 6.40312 5.65685 5 4.47214 4.12311 4 4 4 4.12311 3.60555 2.82843 2.23607 2 2 2.23607 2.82843 3.60555 4.24264 5 5.83095 6.08276 5.09902 4.12311 3.16228 2.23607 1.41421 1 0 1 1 1.41421 1 0 1 0 1 0 0 1 2 2.82843 3.60555 4.24264 4.12311 4 3.60555 3.16228 3 3 3 3.16228 3 3 3.16228 3.60555 4.24264 5 5.65685 6.40312 7.07107 7.81025 8.60233 8.94427 8.06226 7.2111 6.40312 5.65685 5 4.47214 4.12311 4 3.60555 3.16228 3 3 3 3 3.16228 3.60555 2.82843 2.23607 2 2 2.23607 2.82843 3.60555 4.24264 4.24264 3.60555 3.16228 3 3 3.16228 3.60555 4.24264 5 4.47214 4.12311 4 4 3.60555 2.82843 2.23607 1.41421 1 0 0 1 2 3 3.60555 2.82843 2.23607 2 1.41421 1 1 1 1 1.41421 2 2.23607 2 1.41421 1 0 0 0 1 2 2.23607 1.41421 1 0 0 1 1.41421 2.23607 2.23607 1.41421 1 0 0 1 1.41421 2.23607 2.82843 3.60555 4.24264 5 5.65685 5 4.12311 3.16228 2.23607 1.41421 1 0 1 0 0 0 1 1.41421 1 1 1 1.41421 2.23607 3.16228 3 2 1 0 0 0 0 0 0 0 0 0 0 1 0 0 0 1 1 1 1 1 1 0 0 1 1 0 0 1 0 0 0 1 2 2.82843 3.60555 4.24264 5 5.83095 6.7082 7.61577 7.81025 7.07107 6.40312 5.83095 5.38516 5.09902 5 5 4.47214 4.12311 4 4 4 3 2 1 0 0 1 1.41421 2.23607 2 1 0 0 0 0 1 2 2.82843 2.23607 2 2 2 2.23607 2.82843 3.60555 4.24264 5 5.65685 6.32456 6.7082 7.2111 7.81025 8.48528 9.21954 10 10.8167 11.6619 12.53 13.4164 14.3178 15.2315 16.1555 17.088 18.0278 18.9737 19.9249 20.8806 21.8403 22.8035 23.7697 24.7386 25.7099 26.6833 27.6586 28.6356 29.6142 30.5941 31.5753 32.5576 33.541 34.5254 35.5106 36.2491 35.8469 35.4683 35.1141 34.7851 34.4819 34.2053 33.9559 33.7343 32.9848 32.0156 31.0483 30.0832 29.1204 28.1603 27.2029 26.2488 25.2982 24.3516 23.4094 22.4722 21.5407 20.6155 19.6977 18.7883 17.8885 17 16.1245 15.2643 14.4222 13.6015 12.8062 12.0416 11.3137 10.6301 10 9.43398 8.94427 8.544 8.24621 8.06226 8 8 8.06226 8.24621 8.544 8.94427 9.43398 10 10.6301 11.3137 12.0416 12.8062 13.6015 14.4222 15.2643 16.1245 17 17.8885 18.0278 17.088 16.1555 15.2315 14.3178 13.4164 12.53 11.6619 10.8167 10 9.21954 8.48528 7.81025 7.2111 6.7082 6.32456 5.83095 5 4.24264 3.60555 3.16228 3 3 3.16228 3.60555 4.24264 5 5.83095 6.7082 7.61577 8.544 9 8 7 6 5 4 3 2 1 0
0 1 2 3 4 5 6 7 8 9 10 11 12 13 14 15 16 17 18 19 20 21 22 23 24 25 26 27 28 29 29.1548 28.2312 27.313 26.4008 25.4951 24.5967 23.7065 22.8035 21.8403 20.8806 19.9249 18.9737 18.0278 17.088 16.1555 15.2315 14.3178 13.4164 12.53 11.6619 10.8167 10 9.21954 8.48528 7.81025 7.2111 6.7082 6.32456 6.08276 6 6 5.83095 5.38516 5.09902 5 5 4 3 2 1 0 0 1 2 2.82843 3.60555 4.47214 5.38516 5.83095 6.40312 6.7082 5.83095 5 4.24264 3.60555 2.82843 2.23607 2 2 2.23607 2.82843 3.60555 4 3 2 1 0 0 1 2 2.23607 2 2 2.23607 2.23607 1.41421 1 0 1 2 2.82843 2 1 0 0 0 1 1.41421 2.23607 2.82843 3.60555 4.24264 5 5.83095 6.7082 6.7082 6.32456 5.83095 5 4.24264 3.60555 3.16228 3 3 3 3.16228 3.16228 2.23607 1.41421 1 1 1.41421 2.23607 2.82843 3.60555 4.47214 5.38516 6 5 4 3 2 1 0 0 1 2 2 1 0 1 0 0 1 0 1 1.41421 2.23607 2.82843 3.60555 4.47214 3.60555 2.82843 2.23607 2 2 2 2.23607 2 2 2.23607 2.82843 3.60555 4.24264 5 5.65685 6.40312 7.2111 8 8.06226 7.61577 6.7082 5.83095 5 4.24264 3.60555 3.16228 3 2.82843 2.23607 2 2 2 2 2.23607 2.82843 3.60555 2.82843 2.23607 2 2 2.23607 2.82843 3.60555 3.60555 2.82843 2.23607 2 2 2.23607 2.82843 3.60555 4.24264 3.60555 3.16228 3 3 3.16228 3.60555 2.82843 2.23607 1.41421 1 1 1.41421 2.23607 3.16228 3.16228 2.23607 1.41421 1 1 0 0 0 0 1 1 1.41421 2 2.23607 1.41421 1 1 1 1.41421 2.23607 2.82843 2.23607 1.41421 1 0 0 1 1.41421 1.41421 1 0 0 0 0 1 1.41421 2.23607 2.82843 3.60555 4.24264 5 5.38516 4.47214 3.60555 2.82843 2 1 0 0 0 0 0 0 1 0 0 0 1 2 2.82843 2.23607 2 1.41421 1 1 0 0 0 0 0 0 0 0 0 0 0 1 1 0 0 0 1 0 0 0 0 0 0 0 1 0 0 0 1 2 2.23607 2.82843 3.60555 4.47214 5.38516 6.32456 7.28011 7.2111 6.40312 5.65685 5 4.47214 4.12311 4 4 3.60555 3.16228 3 3 3.16228 3.16228 2.23607 1.41421 1 1 1.41421 2.23607 2.82843 2.23607 1.41421 1 1 1 1 1.41421 2.23607 3.16228 3.16228 3 3 3 3.16228 3.60555 4.24264 5 5.65685 6.40312 7.07107 7.61577 8.06226 8.60233 9.21954 9.8995 10.6301 11.4018 12.2066 13.0384 13.8924 14.7648 15.6525 16.5529 17.4642 18.3848 19.3132 20.2485 21.1896 22.1359 23.0868 24.0416 25 25.9615 26.9258 27.8927 28.8617 29.8329 30.8058 31.7805 32.7567 33.7343 34.7131 35.6931 35.3412 34.9285 34.5398 34.176 33.8378 33.5261 33.2415 32.9848 32.7567 32.5576 31.7805 30.8058 29.8329 28.8617 27.8927 26.9258 25.9615 25 24.0416 23.0868 22.1359 21.1896 20.2485 19.3132 18.3848 17.4642 16.5529 15.6525 14.7648 13.8924 13.0384 12.2066 11.4018 10.6301 9.8995 9.21954 8.60233 8.06226 7.61577 7.28011 7.07107 7 7 7.07107 7.28011 7.61577 8.06226 8.60233 9.21954 9.8995 10.6301 11.4018 12.2066 13.0384 13.8924 14.7648 15.6525 16.5529 17.4642 18.3848 17.4642 16.5529 15.6525 14.7648 13.8924 13.0384 12.2066 11.4018 10.6301 9.8995 9.21954 8.60233 8.06226 7.61577 7.2111 6.40312 5.65685 5 4.47214 4.12311 4 4 4.12311 4.47214 5 5.65685 6.40312 7.2111 8.06226 8.94427 9 8 7 6 5 4 3 2 1 0
0 1 2 3 4 5 6 7 8 9 10 11 12 13 14 15 16 17 18 19 20 21 22 23 24 25 26 27 28 29 29.5466 28.6356 27.7308 26.8328 25.9422 25 24.0416 23.0868 22.1359 21.1896 20.2485 19.3132 18.3848 17.4642 16.5529 15.6525 14.7648 13.8924 13.0384 12.2066 11.4018 10.6301 9.8995 9.21954 8.60233 8.06226 7.61577 7.28011 7.07107 7 7 6.7082 6.32456 5.65685 5 4.47214 4.12311 3.16228 2.23607 1.41421 1 1 1 1.41421 2.23607 3.16228 4.12311 5.09902 6.08276 7.07107 7.2111 6.40312 5.65685 5 4.24264 3.60555 3.16228 3 3 3.16228 3.60555 4.24264 4 3 2 1 0 0 1 2 1.41421 1 1 1.41421 1.41421 1 0 0 1 1.41421 2.23607 1.41421 1 0 1 1 1.41421 2.23607 2.82843 3.60555 4.24264 5 5.65685 6.40312 6.40312 5.83095 5.38516 5 4.47214 3.60555 2.82843 2.23607 2 2 2 2.23607 2.82843 2 1 0 0 1 1.41421 2.23607 3.16228 4.12311 5 5.83095 5 4 3 2 1 0 1 1 1.41421 1.41421 1 0 1 1 0 0 0 0 1 1.41421 2.23607 3.16228 4.12311 3.16228 2.23607 1.41421 1 1 1 1.41421 1 1 1.41421 2.23607 2.82843 3.60555 4.24264 5 5.83095 6.7082 7 7.07107 7.28011 6.32456 5.38516 4.47214 3.60555 2.82843 2.23607 2 2 1.41421 1 1 1 1 1.41421 2.23607 3.16228 2.23607 1.41421 1 1 1.41421 2.23607 3.16228 3.16228 2.23607 1.41421 1 1 1.41421 2.23607 2.82843 3.60555 2.82843 2.23607 2 2 2.23607 2.82843 3.60555 2.82843 2.23607 2 2 2.23607 2.82843 3.60555 3 2 1 0 0 0 0 1 0 0 0 1 1 1.41421 2 2 2 2 2.23607 2.82843 3.60555 2.82843 2.23607 1.41421 1 0 0 1 1 0 0 0 0 0 0 1 1.41421 2.23607 2.82843 3.60555 4.47214 5.38516 5 4.12311 3.16228 2.23607 1.41421 1 0 0 0 0 0 1 0 0 0 1 2 2.23607 1.41421 1 1 1.41421 1 0 0 1 1 0 0 0 0 1 0 0 0 0 0 1 0 1 0 0 0 0 0 0 0 1 1 0 0 1 1 1.41421 2.23607 3.16228 4.12311 5.09902 6.08276 6.32456 6.7082 5.83095 5 4.24264 3.60555 3.16228 3 3 2.82843 2.23607 2 2 2.23607 2.82843 2.82843 2.23607 2 2 2.23607 2.23607 2 2 2.23607 2 2 2 2 2.23607 2.82843 3.16228 3.60555 4 4 4 4.12311 4.47214 5 5.65685 6.40312 7.07107 7.81025 8.48528 8.94427 9.43398 10 10.6301 11.3137 12.0416 12.8062 13.6015 14.4222 15.2643 16.1245 17 17.8885 18.7883 19.6977 20.6155 21.5407 22.4722 23.4094 24.3516 25.2982 26.2488 27.2029 28.1603 29.1204 30.0832 31.0483 32.0156 32.9848 33.9559 34.9285 34.8855 34.4384 34.0147 33.6155 33.2415 32.8938 32.573 32.28 32.0156 31.7805 31.5753 31.4006 30.5941 29.6142 28.6356 27.6586 26.6833 25.7099 24.7386 23.7697 22.8035 21.8403 20.8806 19.9249 18.9737 18.0278 17.088 16.1555 15.2315 14.3178 13.4164 12.53 11.6619 10.8167 10 9.21954 8.48528 7.81025 7.2111 6.7082 6.32456 6.08276 6 6 6.08276 6.32456 6.7082 7.2111 7.81025 8.48528 9.21954 10 10.8167 11.6619 12.53 13.4164 14.3178 15.2315 16.1555 17.088 18.0278 17.8885 17 16.1245 15.2643 14.4222 13.6015 12.8062 12.0416 11.3137 10.6301 10 9.43398 8.94427 8.544 7.81025 7.07107 6.40312 5.83095 5.38516 5.09902 5 5 5.09902 5.38516 5.83095 6.40312 7.07107 7.81025 8.60233 9.43398 9 8 7 6 5 4 3 2 1 0
0 1 2 3 4 5 6 7 8 9 10 11 12 13 14 15 16 17 18 19 20 21 22 23 24 25 26 27 28 29 29.9666 29.0689 28.1603 27.2029 26.2488 25.2982 24.3516 23.4094 22.4722 21.5407 20.6155 19.6977 18.7883 17.8885 17 16.1245 15.2643 14.4222 13.6015 12.8062 12.0416 11.3137 10.6301 10 9.43398 8.94427 8.544 8.24621 8.06226 8 7.61577 6.7082 5.83095 5 4.24264 3.60555 3.16228 3 2.23607 1.41421 1 0 0 1 2 3 4 5 6 7 7.81025 7.07107 6.40312 5.65685 5 4.47214 4.12311 4 4 4.12311 4.47214 5 4.12311 3.16228 2.23607 1.41421 1 1 1.41421 2 1 0 0 1 1 0 0 0 0 1 2 1 0 0 1 2 2.23607 2.82843 3.60555 4.24264 5 5.65685 6.40312 6.40312 5.65685 5 4.47214 4.12311 3.60555 3.16228 2.23607 1.41421 1 1 1 1.41421 2.23607 2 1 0 0 0 1 2 2.82843 3.60555 4.47214 5.38516 5 4 3 2 1 0 0 0 1 1 0 0 1 1.41421 1 0 1 0 0 1 2 3 4 3 2 1 0 0 0 1 0 0 1 1.41421 2.23607 2.82843 3.60555 4.47214 5.38516 6 6 6.08276 6.32456 6.08276 5.09902 4.12311 3.16228 2.23607 1.41421 1 1 1 0 0 0 0 1 2 3 2 1 0 0 1 2 3 2.82843 2 1 0 0 1 1.41421 2.23607 2.82843 2.23607 1.41421 1 1 1.41421 2.23607 2.82843 3.60555 3.16228 3 3 3.16228 3.60555 4 3 2 1 0 0 0 0 1 1 1 0 0 0 1 1 1.41421 2.23607 2.82843 3 3.16228 3.60555 3.60555 2.82843 2.23607 1.41421 1 0 0 0 0 0 0 0 0 0 0 1 1.41421 2.23607 3.16228 4.12311 5 5.38516 4.47214 3.60555 2.82843 2.23607 1.41421 1 0 0 0 0 0 0 0 0 1 2 2 1 0 0 1 1 0 0 0 0 0 0 0 0 0 0 0 0 1 0 0 0 1 1 1 1 1 1 1 1 1 0 0 1 0 0 1 2 3 4 5 5.09902 5.38516 5.83095 5.38516 4.47214 3.60555 2.82843 2.23607 2 2 2 1.41421 1 1 1.41421 2.23607 3.16228 3.16228 2.82843 2.23607 2 1.41421 1 1 1.41421 2.23607 3 2.82843 2.23607 2 2 2.23607 2.82843 3.60555 4.47214 5 5.09902 5.38516 5.83095 6.40312 7.07107 7.81025 8.48528 9.21954 9.84886 10.2956 10.8167 11.4018 12.0416 12.7279 13.4536 14.2127 15 15.8114 16.6433 17.4929 18.3576 19.2354 20.1246 21.0238 21.9317 22.8473 23.7697 24.6982 25.632 26.5707 27.5136 28.4605 29.4109 30.3645 31.3209 32.28 33.2415 34.2053 34.4819 34 33.541 33.1059 32.6956 32.311 31.9531 31.6228 31.3209 31.0483 30.8058 30.5941 30.4138 30.2655 29.4279 28.4429 27.4591 26.4764 25.4951 24.5153 23.5372 22.561 21.587 20.6155 19.6469 18.6815 17.72 16.7631 15.8114 14.8661 13.9284 13 12.083 11.1803 10.2956 9.43398 8.60233 7.81025 7.07107 6.40312 5.83095 5.38516 5.09902 5 5 5.09902 5.38516 5.83095 6.40312 7.07107 7.81025 8.60233 9.43398 10.2956 11.1803 12.083 13 13.9284 14.8661 15.8114 16.7631 17.72 18.3576 17.4929 16.6433 15.8114 15 14.2127 13.4536 12.7279 12.0416 11.4018 10.8167 10.2956 9.84886 9.21954 8.48528 7.81025 7.2111 6.7082 6.32456 6.08276 6 6 6.08276 6.32456 6.7082 7.2111 7.81025 8.48528 9.21954 10 9 8 7 6 5 4 3 2 1 0
0 1 2 3 4 5 6 7 8 9 10 11 12 13 14 15 16 17 18 19 20 21 22 23 24 25 26 27 28 29 30 29.4109 28.4605 27.5136 26.5707 25.632 24.6982 23.7697 22.8473 21.9317 21.0238 20.1246 19.2354 18.3576 17.4929 16.6433 15.8114 15 14.2127 13.4536 12.7279 12.0416 11.4018 10.8167 10.2956 9.84886 9.48683 9.21954 9.05539 8.24621 7.28011 6.32456 5.38516 4.47214 3.60555 2.82843 2.23607 2 2 1 0 0 0 1 2 3 4 5 6 7 8 7.81025 7.07107 6.40312 5.83095 5.38516 5.09902 5 5 5.09902 5.38516 5.38516 4.47214 3.60555 2.82843 2.23607 2 2 2.23607 2 1 0 0 1 1 0 1 0 0 1 1.41421 1 0 1 1.41421 2.23607 3.16228 3.60555 4.24264 5 5.65685 6.40312 6.7082 5.83095 5 4.24264 3.60555 3.16228 2.82843 2.23607 2 1 0 0 0 1 1.41421 2 1 0 0 0 1 1.41421 2.23607 3.16228 4.12311 5.09902 5.09902 4.12311 3.16228 2.23607 1.41421 1 0 0 0 1 0 1 1.41421 2 1 0 0 0 0 1 2 3 3 3 2 1 0 1 0 0 0 0 0 1 1.41421 2.23607 3.16228 4.12311 5 5 5 5.09902 5.38516 5.83095 5 4 3 2 1 0 0 1 0 1 1 0 1 2 3 2 1 0 0 1 2 3 2.23607 1.41421 1 0 0 0 1 1.41421 2 2 1 0 0 1 1.41421 2.23607 3.16228 4.12311 4 4 4.12311 4.47214 4.12311 3.16228 2.23607 1.41421 1 0 1 1 1.41421 2 1.41421 1 1 0 0 0 1 1.41421 2 2 2.23607 2.82843 3.60555 3.60555 2.82843 2.23607 1.41421 1 1 0 0 1 0 1 0 0 0 0 1 2 2.82843 3.60555 4.47214 5.38516 5 4.24264 3.60555 2.82843 2 1 0 0 0 0 0 0 0 0 1 1.41421 2 1 0 0 0 0 1 0 1 1 1 0 0 0 1 0 0 1 0 0 1 1 1.41421 2 2 2 2 1 0 0 0 0 0 1 0 0 1 2 3 4 4 4.12311 4.47214 5 5 4.12311 3.16228 2.23607 1.41421 1 1 1 1 0 0 1 2 3 2.82843 2.23607 1.41421 1 1 0 0 1 2 2.82843 2.23607 1.41421 1 1 1.41421 2.23607 3.16228 4.12311 5.09902 6.08276 6.32456 6.7082 7.2111 7.81025 8.48528 9.21954 9.8995 10.6301 11.1803 11.6619 12.2066 12.8062 13.4536 14.1421 14.8661 15.6205 16.4012 17.2047 18.0278 18.868 19.7231 20.5913 21.4709 22.3607 23.2594 24.1661 25.0799 26 26.9258 27.8568 28.7924 29.7321 30.6757 31.6228 32.573 33.5261 34.1321 33.6155 33.121 32.6497 32.2025 31.7805 31.3847 31.0161 30.6757 30.3645 30.0832 29.8329 29.6142 29.4279 29.2746 29.1548 28.2843 27.2947 26.3059 25.318 24.3311 23.3452 22.3607 21.3776 20.3961 19.4165 18.4391 17.4642 16.4924 15.5242 14.5602 13.6015 12.6491 11.7047 10.7703 9.84886 8.94427 8.06226 7.2111 6.40312 5.65685 5 4.47214 4.12311 4 4 4.12311 4.47214 5 5.65685 6.40312 7.2111 8.06226 8.94427 9.84886 10.7703 11.7047 12.6491 13.6015 14.5602 15.5242 16.4924 17.4642 18.4391 18.0278 17.2047 16.4012 15.6205 14.8661 14.1421 13.4536 12.8062 12.2066 11.6619 11.1803 10.6301 9.8995 9.21954 8.60233 8.06226 7.61577 7.28011 7.07107 7 7 7.07107 7.28011 7.61577 8.06226 8.60233 9.21954 9.8995 10 9 8 7 6 5 4 3 2 1 0
0 1 2 3 4 5 6 7 8 9 10 11 12 13 14 15 16 17 18 19 20 21 22 23 24 25 26 27 28 29 30 29.7321 28.7924 27.8568 26.9258 26 25.0799 24.1661 23.2594 22.3607 21.4709 20.5913 19.7231 18.868 18.0278 17.2047 16.4012 15.6205 14.8661 14.1421 13.4536 12.8062 12.2066 11.6619 11.1803 10.7703 10.4403 10.0499 9.05539 8.06226 7.07107 6.08276 5.09902 4.12311 3.16228 2.23607 1.41421 1 1 1 0 0 1 1.41421 2.23607 3.16228 4.12311 5.09902 6.08276 7.07107 7.61577 8.06226 7.81025 7.2111 6.7082 6.32456 6.08276 6 6 6.08276 6.32456 5.83095 5 4.24264 3.60555 3.16228 3 3 3 2 1 0 0 1 1 0 1 1 1 1 1 0 0 1 2 2.82843 3.60555 4.47214 5 5.65685 6.40312 7.07107 6.32456 5.38516 4.47214 3.60555 2.82843 2.23607 2 1.41421 1 1 0 1 0 0 1 1.41421 1.41421 1 0 0 0 1 2 3 4 5 5.38516 4.47214 3.60555 2.82843 2.23607 1.41421 1 1 0 0 0 1 2 2.23607 1.41421 1 0 1 0 1 2 2.23607 2 2 2 1 0 1 1 0 0 0 0 0 1 2 3 4 4 4 4 4.12311 4.47214 5 5 4 3 2 1 0 0 0 0 1 1 0 1 2 3 2.23607 1.41421 1 1 1.41421 2.23607 3 2 1 0 0 1 0 0 1 1 1 1 0 0 0 1 2 3 4 5 5 5.09902 5.38516 4.47214 3.60555 2.82843 2 1 0 0 0 1 1 1.41421 2 1.41421 1 1 0 0 1 1 1 1.41421 2.23607 3.16228 4.12311 3.60555 2.82843 2.23607 2 1.41421 1 0 0 0 1 1 0 0 0 1 1.41421 2.23607 3.16228 4.12311 5.09902 5.65685 5 4.12311 3.16228 2.23607 1.41421 1 0 1 0 0 0 0 0 0 1 1 1 0 0 0 0 1 0 1 2 1.41421 1 1 0 1 0 0 0 0 1 1 1 1 1.41421 2 2 2 1 0 1 0 0 0 1 1 1 1.41421 2.23607 3 3 3 3.16228 3.60555 4.24264 4.24264 3.60555 3 2 1 0 0 0 0 0 0 1 2 2.82843 2.23607 1.41421 1 0 0 0 0 1 2 2.23607 1.41421 1 0 0 1 2 3 4 5 6 7 7.61577 8.06226 8.60233 9.21954 9.8995 10.6301 11.3137 12.0416 12.53 13.0384 13.6015 14.2127 14.8661 15.5563 16.2788 17.0294 17.8045 18.6011 19.4165 20.2485 21.095 21.9545 22.8254 23.7065 24.5967 25.4951 26.4008 27.313 28.2312 29.1548 30.0832 31.0161 31.9531 32.8938 33.8378 33.2866 32.7567 32.249 31.7648 31.305 30.8707 30.4631 30.0832 29.7321 29.4109 29.1204 28.8617 28.6356 28.4429 28.2843 28.1603 28.0713 27.1662 26.1725 25.1794 24.1868 23.1948 22.2036 21.2132 20.2237 19.2354 18.2483 17.2627 16.2788 15.2971 14.3178 13.3417 12.3693 11.4018 10.4403 9.48683 8.544 7.61577 6.7082 5.83095 5 4.24264 3.60555 3.16228 3 3 3.16228 3.60555 4.24264 5 5.83095 6.7082 7.61577 8.544 9.48683 10.4403 11.4018 12.3693 13.3417 14.3178 15.2971 16.2788 17.2627 18.2483 18.6011 17.8045 17.0294 16.2788 15.5563 14.8661 14.2127 13.6015 13.0384 12.53 12.0416 11.3137 10.6301 10 9.43398 8.94427 8.544 8.24621 8.06226 8 8 8.06226 8.24621 8.544 8.94427 9.43398 10 10.6301 10 9 8 7 6 5 4 3 2 1 0
0 1 2 3 4 5 6 7 8 9 10 11 12 13 14 15 16 17 18 19 20 21 22 23 24 25 26 27 28 29 30 30.0832 29.1548 28.2312 27.313 26.4008 25.4951 24.5967 23.7065 22.8254 21.9545 21.095 20.2485 19.4165 18.6011 17.8045 17.0294 16.2788 15.5563 14.8661 14.2127 13.6015 13.0384 12.53 12.083 11.7047 11 10 9 8 7 6 5 4 3 2 1 0 0 1 0 0 1 2 2.82843 3.60555 4.47214 5.38516 6.08276 6.32456 6.7082 7.2111 7.81025 8.06226 7.61577 7.28011 7.07107 7 7 7.07107 7.2111 6.40312 5.65685 5 4.47214 4.12311 4 4 3.16228 2.23607 1.41421 1 1 0 0 0 1 2 1 0 0 0 1 1.41421 2.23607 3.16228 4.12311 5 5.83095 6.40312 7.07107 7.07107 6.08276 5.09902 4.12311 3.16228 2.23607 1.41421 1 1 0 0 0 1 1 0 0 1 1.41421 1 0 0 0 1 2 3 4 5 5.83095 5 4.24264 3.60555 2.82843 2.23607 2 1.41421 1 1 1 1.41421 2.23607 2.82843 2 1 0 1 0 1 2 1.41421 1 1 1 1 0 0 0 1 0 0 0 0 1 2 3 3 3 3 3 3.16228 3.60555 4 4.12311 4 3 2 1 0 0 1 1 1.41421 1 0 1 2 3 2.82843 2.23607 2 2 2.23607 2.82843 3 2 1 0 0 1 0 0 1 0 0 1 0 1 0 1 2 3 4 5 6 6.08276 5.83095 5 4.12311 3.16228 2.23607 1.41421 1 1 0 0 0 1 1 1 1 1 1 0 0 0 0 1 2 2.82843 3.60555 4.24264 3.60555 3.16228 2.82843 2.23607 1.41421 1 1 1 1.41421 1.41421 1 0 0 0 1 2 3 4 5 6 5.38516 4.47214 3.60555 2.82843 2 1 0 0 0 0 0 0 0 0 0 0 0 0 0 0 0 1 0 1 2 2.23607 2 1 0 0 0 0 1 1 0 0 0 0 1 1 1 1.41421 1 0 0 0 0 0 0 0 1 2 2.23607 2 2 2 2.23607 2.82843 3.60555 3.60555 2.82843 2.23607 2 1 0 0 0 0 0 1 1.41421 2.23607 2.23607 1.41421 1 0 0 0 1 1 1.41421 2.23607 2 1 0 0 0 1 2 3 4 5 6 7 8 8.94427 9.43398 10 10.6301 11.3137 12.0416 12.7279 13.4164 13.8924 14.4222 15 15.6205 16.2788 16.9706 17.6918 18.4391 19.2094 20 20.8087 21.6333 22.4722 23.3238 24.1868 25.0599 25.9422 26.8328 27.7308 28.6356 29.5466 30.4631 31.3847 32.311 33.2415 33.0151 32.45 31.9061 31.3847 30.8869 30.4138 29.9666 29.5466 29.1548 28.7924 28.4605 28.1603 27.8927 27.6586 27.4591 27.2947 27.1662 27.074 27.0185 26.0768 25.0799 24.0832 23.0868 22.0907 21.095 20.0998 19.105 18.1108 17.1172 16.1245 15.1327 14.1421 13.1529 12.1655 11.1803 10.198 9.21954 8.24621 7.28011 6.32456 5.38516 4.47214 3.60555 2.82843 2.23607 2 2 2.23607 2.82843 3.60555 4.47214 5.38516 6.32456 7.28011 8.24621 9.21954 10.198 11.1803 12.1655 13.1529 14.1421 15.1327 16.1245 17.1172 18.1108 19.105 18.3848 17.6918 16.9706 16.2788 15.6205 15 14.4222 13.8924 13.4164 12.7279 12.0416 11.4018 10.8167 10.2956 9.84886 9.48683 9.21954 9.05539 9 9 9.05539 9.21954 9.48683 9.84886 10.2956 10.8167 11 10 9 8 7 6 5 4 3 2 1 0
0 1 2 3 4 5 6 7 8 9 10 11 12 13 14 15 16 17 18 19 20 21 22 23 24 25 26 27 28 29 30 30.4631 29.5466 28.6356 27.7308 26.8328 25.9422 25.0599 24.1868 23.3238 22.4722 21.6333 20.8087 20 19.2094 18.4391 17.6918 16.9706 16.2788 15.6205 15 14.4222 13.8924 13.4164 13 12 11 10 9 8 7 6 5 4 3 2 1 0 0 1 1 1 1.41421 2.23607 3.16228 4.12311 5 5 5.09902 5.38516 5.83095 6.40312 7.07107 7.81025 8.544 8.24621 8.06226 8 8 8.06226 7.81025 7.07107 6.40312 5.83095 5.38516 5.09902 5 4.47214 3.60555 2.82843 2.23607 2 1 0 0 1 1.41421 2 1 0 1 1 1.41421 2.23607 2.82843 3.60555 4.47214 5.38516 6.32456 7.2111 7.81025 7 6 5 4 3 2 1 0 0 0 1 1 0 0 1 0 0 1 1.41421 1 1 1 1.41421 2.23607 3.16228 4.12311 5.09902 6.08276 5.65685 5 4.24264 3.60555 3.16228 2.82843 2.23607 2 2 2 2.23607 2.82843 3 2 1 0 0 0 1 2 1 0 0 0 1 1 1 0 0 0 1 0 0 1 2 2.23607 2 2 2 2 2.23607 2.82843 3 3.16228 3.60555 3.16228 2.23607 1.41421 1 0 0 0 1 0 0 1 2 3 3.60555 3.16228 3 3 3.16228 3.60555 3 2 1 0 0 1 1 0 1 0 0 0 0 1 0 1 2 3 4 5 6 7 6.32456 5.38516 4.47214 3.60555 2.82843 2.23607 2 1.41421 1 1 0 0 0 0 0 0 0 0 1 1 0 1 1.41421 2.23607 3.16228 4.12311 4.47214 4.12311 3.60555 2.82843 2.23607 2 2 2 2 2 1 0 0 0 1 2 3 4 5 6 5.83095 5 4.12311 3.16228 2.23607 1.41421 1 0 1 0 0 0 0 0 0 0 0 0 0 0 0 0 0 1 2 3 2 1 0 0 0 1 0 0 0 0 0 0 1 0 0 1 0 0 0 1 0 0 1 0 1 2 1.41421 1 1 1 1.41421 2.23607 3.16228 3.16228 2.23607 1.41421 1 1 1 1 0 0 1 1.41421 2.23607 2.23607 2 1 0 0 0 1 1.41421 2 2.23607 2.23607 1.41421 1 0 0 1 1.41421 2.23607 3.16228 4.12311 5.09902 6.08276 7.07107 8.06226 9.05539 10.0499 10.8167 11.4018 12.0416 12.7279 13.4536 14.1421 14.7648 15.2643 15.8114 16.4012 17.0294 17.6918 18.3848 19.105 19.8494 20.6155 21.4009 22.2036 23.0217 23.8537 24.6982 25.5539 26.4197 27.2947 28.178 29.0689 29.9666 30.8707 31.7805 32.6956 32.8024 32.2025 31.6228 31.0644 30.5287 30.0167 29.5296 29.0689 28.6356 28.2312 27.8568 27.5136 27.2029 26.9258 26.6833 26.4764 26.3059 26.1725 26.0768 26.0192 26 25.02 24.0208 23.0217 22.0227 21.0238 20.025 19.0263 18.0278 17.0294 16.0312 15.0333 14.0357 13.0384 12.0416 11.0454 10.0499 9.05539 8.06226 7.07107 6.08276 5.09902 4.12311 3.16228 2.23607 1.41421 1 1 1.41421 2.23607 3.16228 4.12311 5.09902 6.08276 7.07107 8.06226 9.05539 10.0499 11.0454 12.0416 13.0384 14.0357 15.0333 16.0312 17.0294 18.0278 18.4391 17.6918 16.9706 16.2788 15.6205 15 14.4222 13.8924 13.4164 13 12.6491 12.3693 12.1655 11.6619 11.1803 10.7703 10.4403 10.198 10.0499 10 10 10.0499 10.198 10.4403 10.7703 11.1803 11.6619 11 10 9 8 7 6 5 4 3 2 1 0
0 1 2 3 4 5 6 7 8 9 10 11 12 13 14 15 16 17 18 19 20 21 22 23 24 25 26 27 28 29 30 30.8707 29.9666 29.0689 28.178 27.2947 26.4197 25.5539 24.6982 23.8537 23.0217 22.2036 21.4009 20.6155 19.8494 19.105 18.3848 17.6918 17.0294 16.4012 15.8114 15.2643 14.7648 14.0357 13.0384 12.0416 11.0454 10.0499 9.05539 8.06226 7.07107 6.08276 5.09902 4.12311 3.16228 2.23607 1.41421 1 1 1.41421 2 2 2.23607 2.82843 3.60555 4.12311 4 4 4.12311 4.47214 5 5.65685 6.40312 7.2111 8.06226 8.94427 9.05539 9 9 8.94427 8.06226 7.2111 6.40312 5.65685 5 4.47214 4.12311 4 3.16228 2.23607 1.41421 1 1 1 0 1 1.41421 1 1 0 1 2 2.23607 2.82843 3.60555 4.24264 5 5.83095 6.7082 7.61577 8 7 6 5 4 3 2 1 0 0 1 1 0 0 0 1 1 0 1 1 1 1 1.41421 2.23607 2.82843 3.60555 4.47214 5.38516 6.32456 6.40312 5.65685 5 4.47214 4.12311 3.60555 3.16228 3 3 3 3.16228 3.60555 3 2 1 0 0 1 1.41421 2 1 0 1 0 0 0 0 1 0 0 1 1 1 1.41421 2.23607 1.41421 1 1 1 1 1.41421 2 2 2.23607 2.82843 3.60555 2.82843 2.23607 1.41421 1 1 0 0 0 1 1.41421 2.23607 3.16228 4.12311 4.12311 4 4 4.12311 4.12311 3.16228 2.23607 1.41421 1 0 1 1 0 1 0 0 1 1 1 0 1 2 3 4 5 6 7 6.7082 5.83095 5 4.24264 3.60555 3.16228 2.82843 2.23607 2 1.41421 1 1 1 1 1 1 1 0 0 1 0 0 1 2 3 4 5 4.47214 3.60555 2.82843 2.23607 2 1.41421 1 1 1 1 1 1 1 1.41421 2.23607 3.16228 4.12311 5.09902 6.08276 6.32456 5.38516 4.47214 3.60555 2.82843 2 1 0 0 0 0 0 0 0 0 0 0 0 0 0 0 0 1 1.41421 2.23607 3.16228 2.23607 1.41421 1 0 0 0 0 0 0 1 1 1 1 0 0 1 0 0 0 0 0 0 0 0 1 1 1 0 0 0 1 2 3 3 2 1 0 0 0 0 1 1 1 1 1.41421 1.41421 1 1 0 0 1 1.41421 2.23607 2.82843 3 2 1 0 0 1 1.41421 2.23607 2.82843 3.60555 4.47214 5.38516 6.32456 7.28011 8.24621 9.21954 10.198 11.1803 12.1655 12.8062 13.4536 14.1421 14.8661 15.5563 16.1245 16.6433 17.2047 17.8045 18.4391 19.105 19.799 20.5183 21.2603 22.0227 22.8035 23.6008 24.4131 25.2389 26.0768 26.9258 27.7849 28.6531 29.5296 30.4138 31.305 32.2025 32.6497 32.0156 31.4006 30.8058 30.2324 29.6816 29.1548 28.6531 28.178 27.7308 27.313 26.9258 26.5707 26.2488 25.9615 25.7099 25.4951 25.318 25.1794 25.0799 25.02 25 25 24 23 22 21 20 19 18 17 16 15 14 13 12 11 10 9 8 7 6 5 4 3 2 1 0 0 1 2 3 4 5 6 7 8 9 10 11 12 13 14 15 16 17 18 17.8045 17.0294 16.2788 15.5563 14.8661 14.2127 13.6015 13.0384 12.53 12.083 11.7047 11.4018 11.1803 11.0454 11 11 11.0454 11.1803 11.0454 11 11 11.0454 11.1803 11.4018 11.7047 12.083 12 11 10 9 8 7 6 5 4 3 2 1 0
0 1 2 3 4 5 6 7 8 9 10 11 12 13 14 15 16 17 18 19 20 21 22 23 24 25 26 27 28 29 30 31 30.4138 29.5296 28.6531 27.7849 26.9258 26.0768 25.2389 24.4131 23.6008 22.8035 22.0227 21.2603 20.5183 19.799 19.105 18.4391 17.8045 17.2047 16.6433 16.1245 15.1327 14.1421 13.1529 12.1655 11.1803 10.198 9.21954 8.24621 7.28011 6.32456 5.38516 4.47214 3.60555 2.82843 2.23607 2 2 2.23607 2.82843 3 3 3 3.16228 3.16228 3 3 3.16228 3.60555 4.24264 5 5.83095 6.7082 7.61577 8.544 9.48683 10 9.48683 8.544 7.61577 6.7082 5.83095 5 4.24264 3.60555 3.16228 3 2.82843 2 1 0 0 0 0 1 1 0 0 0 1 2 3 3.60555 4.24264 5 5.65685 6.40312 7.2111 8.06226 8.06226 7.07107 6.08276 5.09902 4.12311 3.16228 2.23607 1.41421 1 0 0 1 0 0 0 0 1 0 0 0 0 0 1 2 3 4 5 5.83095 6.7082 7.07107 6.40312 5.83095 5.38516 5 4.47214 4.12311 4 4 4 4.12311 4 3 2 1 0 0 1 2 2 1 0 1 1 1 1 0 0 1 1 1.41421 2 2 2 1.41421 1 0 0 0 0 1 1 1 1.41421 2.23607 2.82843 3.60555 2.82843 2.23607 2 1.41421 1 1 1 1.41421 2.23607 2.82843 3.60555 4.47214 5.09902 5 5 5.09902 4.47214 3.60555 2.82843 2 1 0 1 1 0 1 1 0 0 0 0 0 1 2 3 4 5 6 7 6.40312 5.65685 5 4.47214 3.60555 2.82843 2.23607 2 2 2.23607 2 2 2 2 2 2 1.41421 1 0 0 0 0 1 2 3 3.60555 4 4.12311 3.16228 2.23607 1.41421 1 1 0 0 0 0 1 1.41421 2 2.23607 2.82843 3.60555 4.47214 5.38516 6.32456 6.7082 5.83095 5 4.12311 3.16228 2.23607 1.41421 1 0 0 0 0 0 0 0 0 0 0 0 0 0 0 1 2 2.82843 3.60555 2.82843 2.23607 1.41421 1 1 0 1 1 1 1.41421 2 2 1.41421 1 1 0 0 0 0 1 0 0 1 0 0 0 0 0 0 0 1 2 3 3 2 1 0 1 0 0 1 1 0 0 1 1 0 0 0 1 1.41421 2.23607 2.82843 3.60555 3 2 1 0 0 1 2 2.82843 3.60555 4.24264 5 5.83095 6.7082 7.61577 8.544 9.48683 10.4403 11.4018 12.3693 13.3417 14.2127 14.8661 15.5563 16.2788 16.9706 17.4929 18.0278 18.6011 19.2094 19.8494 20.5183 21.2132 21.9317 22.6716 23.4307 24.2074 25 25.807 26.6271 27.4591 28.3019 29.1548 30.0167 30.8869 31.7648 32.5576 31.8904 31.241 30.6105 30 29.4109 28.8444 28.3019 27.7849 27.2947 26.8328 26.4008 26 25.632 25.2982 25 24.7386 24.5153 24.3311 24.1868 24.0832 24.0208 24 24 24 23 22 21 20 19 18 17 16 15 14 13 12 11 10 9 8 7 6 5 4 3 2 1 0 0 1 2 3 4 5 6 7 8 9 10 11 12 13 14 15 16 16.6433 17.2047 17.2047 16.4012 15.6205 14.8661 14.1421 13.4536 12.8062 12.2066 11.6619 11.1803 10.7703 10.4403 10.198 10.0499 10 10 10.0499 10.198 10.4403 10.7703 11.1803 11.6619 12.1655 12.3693 12.6491 13 12 11 10 9 8 7 6 5 4 3 2 1 0
0 1 2 3 4 5 6 7 8 9 10 11 12 13 14 15 16 17 18 19 20 21 22 23 24 25 26 27 28 29 30 31 30.8869 30.0167 29.1548 28.3019 27.4591 26.6271 25.807 25 24.2074 23.4307 22.6716 21.9317 21.2132 20.5183 19.8494 19.2094 18.6011 18.0278 17.2627 16.2788 15.2971 14.3178 13.3417 12.3693 11.4018 10.4403 9.48683 8.544 7.61577 6.7082 5.83095 5 4.24264 3.60555 3.16228 3 3 3.16228 2.82843 2.23607 2 2 2.23607 2.23607 2 2 2.23607 2.82843 3.60555 4.47214 5.38516 6.32456 7.28011 8.24621 9.21954 9.48683 9.21954 8.24621 7.28011 6.32456 5.38516 4.47214 3.60555 2.82843 2.23607 2 2 1.41421 1 0 0 0 0 1 1 0 1 1 1.41421 2.23607 3.16228 4.12311 5 5.65685 6.40312 7.07107 7.81025 8.60233 8.24621 7.28011 6.32456 5.38516 4.47214 3.60555 2.82843 2.23607 1.41421 1 0 1 1 0 1 0 0 1 0 0 0 0 1 2 3 4 5 6 7 7 7.07107 6.7082 6.32456 5.83095 5.38516 5.09902 5 5 5 5.09902 4.12311 3.16228 2.23607 1.41421 1 1 1.41421 2.23607 2 1 0 1 1 1 1 1 0 1 2 2.23607 2.23607 1.41421 1 1 0 0 1 1 0 0 0 0 1 1.41421 2.23607 2.82843 3.60555 3.16228 2.82843 2.23607 2 2 2 2.23607 2.82843 3.60555 4.24264 5 5 5.09902 5.38516 5.83095 5 4 3 2 1 0 1 1 0 1 1.41421 1 1 1 1 1 1.41421 2.23607 3.16228 4.12311 5.09902 6.08276 6.7082 5.83095 5 4.24264 3.60555 3.16228 2.23607 1.41421 1 1 1.41421 2 2.23607 2.82843 3 3 2 1 0 0 1 0 0 1 2 2.23607 2.82843 3 3.16228 3 2 1 0 0 0 1 1 0 0 1 1.41421 2.23607 3.16228 4.12311 5 5.65685 6.40312 7.07107 6.32456 5.38516 4.47214 3.60555 2.82843 2 1 0 1 0 0 0 0 0 0 0 0 0 0 0 1 1.41421 2.23607 3.16228 4.12311 3.60555 2.82843 2.23607 2 1 0 0 0 0 1 1.41421 2 1.41421 1 1 0 0 0 0 0 1 1 1 0 0 0 0 0 0 1 1.41421 2.23607 3.16228 3 2 1 0 0 0 1 1 0 0 0 1 1 0 0 0 1 2 2.82843 3.60555 4.12311 3.16228 2.23607 1.41421 1 1 1.41421 2.23607 3.16228 4.12311 5 5.65685 6.40312 7.2111 8.06226 8.94427 9.84886 10.7703 11.7047 12.6491 13.6015 14.5602 15.5242 16.2788 16.9706 17.6918 18.3576 18.868 19.4165 20 20.6155 21.2603 21.9317 22.6274 23.3452 24.0832 24.8395 25.6125 26.4008 27.2029 28.0179 28.8444 29.6816 30.5287 31.3847 32.249 31.8277 31.1448 30.4795 29.8329 29.2062 28.6007 28.0179 27.4591 26.9258 26.4197 25.9422 25.4951 25.0799 24.6982 24.3516 24.0416 23.7697 23.5372 23.3452 23.1948 23.0868 23.0217 23 23 23 23.0217 22.0227 21.0238 20.025 19.0263 18.0278 17.0294 16.0312 15.0333 14.0357 13.0384 12.0416 11.0454 10.0499 9.05539 8.06226 7.07107 6.08276 5.09902 4.12311 3.16228 2.23607 1.41421 1 1 1.41421 2.23607 3.16228 4.12311 5.09902 6.08276 7.07107 8.06226 9.05539 10.0499 11.0454 12.0416 13.0384 14.0357 14.7648 15.2643 15.8114 16.4012 16.6433 15.8114 15 14.2127 13.4536 12.7279 12.0416 11.4018 10.8167 10.2956 9.84886 9.48683 9.21954 9.05539 9 9 9.05539 9.21954 9.48683 9.84886 10.2956 10.8167 11.4018 12.0416 12.7279 13 12 11 10 9 8 7 6 5 4 3 2 1 0
0 1 2 3 4 5 6 7 8 9 10 11 12 13 14 15 16 17 18 19 20 21 22 23 24 25 26 27 28 29 30 31 31.3847 30.5287 29.6816 28.8444 28.0179 27.2029 26.4008 25.6125 24.8395 24.0832 23.3452 22.6274 21.9317 21.2603 20.6155 20 19.4165 18.4391 17.4642 16.4924 15.5242 14.5602 13.6015 12.6491 11.7047 10.7703 9.84886 8.94427 8.06226 7.2111 6.40312 5.65685 5 4.47214 4.12311 4 4 3.16228 2.23607 1.41421 1 1 1.41421 1.41421 1 1 1.41421 2.23607 3.16228 4.12311 5.09902 6.08276 7.07107 8.06226 8.24621 8.544 8.94427 8.06226 7.07107 6.08276 5.09902 4.12311 3.16228 2.23607 1.41421 1 1 1 0 0 1 0 1 1.41421 1 0 1 2 2.23607 2.82843 3.60555 4.47214 5.38516 6.32456 7.07107 7.81025 8.48528 9.21954 8.544 7.61577 6.7082 5.83095 5 4.24264 3.60555 2.82843 2 1 0 1 1 0 0 1 0 1 0 1 0 0 1 2 3 4 5 6 6 6 6.08276 6.32456 6.7082 6.7082 6.32456 6.08276 6 6 6 5.38516 4.47214 3.60555 2.82843 2.23607 2 2 2.23607 2.82843 2 1 0 0 0 0 0 0 0 1 2 2.82843 2 1 0 0 0 1 1.41421 1.41421 1 1 1 0 0 1 1.41421 2.23607 2.82843 3.60555 3.60555 3.16228 3 3 3 3.16228 3.60555 4.24264 4.12311 4 4 4.12311 4.47214 5 5 4 3 2 1 0 0 0 0 1 2 2 2 2 2 2 2.23607 2.82843 3.60555 4.47214 5.38516 6.32456 6.32456 5.38516 4.47214 3.60555 2.82843 2.23607 2 1 0 0 1 1 1.41421 2 2 2.23607 2 1 0 0 0 0 0 1 1 1.41421 2 2 2.23607 2.82843 2 1 0 1 1 1.41421 1.41421 1 0 0 1 2 3 3.60555 4.24264 5 5.65685 6.40312 6.7082 5.83095 5 4 3 2 1 0 0 0 0 0 0 0 0 1 1 0 0 1 1.41421 2.23607 2.82843 3.60555 4.47214 4.24264 3.60555 3.16228 2.23607 1.41421 1 1 1 0 0 1 1 1 0 0 0 1 0 0 0 1 0 0 1 1 1 0 0 1 1.41421 2.23607 2.82843 3.60555 3.16228 2.23607 1.41421 1 1 1 1.41421 1 0 0 1 1 0 0 0 1 1.41421 2.23607 3.16228 4.12311 4.47214 3.60555 2.82843 2.23607 2 2 2.23607 2.82843 3.60555 4.47214 5.38516 6.32456 7.07107 7.81025 8.60233 9.43398 10.2956 11.1803 12.083 13 13.9284 14.8661 15.8114 16.7631 17.6918 18.3848 19.105 19.7231 20.2485 20.8087 21.4009 22.0227 22.6716 23.3452 24.0416 24.7588 25.4951 26.2488 27.0185 27.8029 28.6007 29.4109 30.2324 31.0644 31.9061 31.8277 31.1127 30.4138 29.7321 29.0689 28.4253 27.8029 27.2029 26.6271 26.0768 25.5539 25.0599 24.5967 24.1661 23.7697 23.4094 23.0868 22.8035 22.561 22.3607 22.2036 22.0907 22.0227 22 22 22 22.0227 22.0907 21.095 20.0998 19.105 18.1108 17.1172 16.1245 15.1327 14.1421 13.1529 12.1655 11.1803 10.198 9.21954 8.24621 7.28011 6.32456 5.38516 4.47214 3.60555 2.82843 2.23607 2 2 2.23607 2.82843 3.60555 4.47214 5.38516 6.32456 7.28011 8.24621 9.21954 10.198 11.1803 12.1655 13 13.4164 13.8924 14.4222 15 15.6205 16.1245 15.2643 14.4222 13.6015 12.8062 12.0416 11.3137 10.6301 10 9.43398 8.94427 8.544 8.24621 8.06226 8 8 8.06226 8.24621 8.544 8.94427 9.43398 10 10.6301 11.3137 12.0416 12.8062 12 11 10 9 8 7 6 5 4 3 2 1 0
0 1 2 3 4 5 6 7 8 9 10 11 12 13 14 15 16 17 18 19 20 21 22 23 24 25 26 27 28 29 30 31 31.9061 31.0644 30.2324 29.4109 28.6007 27.8029 27.0185 26.2488 25.4951 24.7588 24.0416 23.3452 22.6716 22.0227 21.4009 20.6155 19.6469 18.6815 17.72 16.7631 15.8114 14.8661 13.9284 13 12.083 11.1803 10.2956 9.43398 8.60233 7.81025 7.07107 6.40312 5.83095 5.38516 5.09902 5 4 3 2 1 0 0 1 1 0 0 1 2 3 4 5 6 7 7.07107 7.28011 7.61577 8.06226 8 7 6 5 4 3 2 1 0 0 1 0 0 0 0 1 1 0 0 1 2 3 3.60555 4.24264 5 5.83095 6.7082 7.61577 8.48528 9.21954 9.84886 8.94427 8.06226 7.2111 6.40312 5.65685 5 4 3 2 1 0 0 0 1 0 1 0 0 0 0 1 1 1.41421 2.23607 3.16228 4.12311 5.09902 5.09902 5 5 5.09902 5.38516 5.83095 6.40312 7.07107 7.07107 7 7 6.7082 5.83095 5 4.24264 3.60555 3.16228 3 3 3.16228 3.16228 2.23607 1.41421 1 0 0 1 1 1 1 1 1.41421 2.23607 2 1 0 0 1 1.41421 2.23607 2.23607 2 2 1.41421 1 0 0 1 1.41421 2.23607 3.16228 4.12311 4.12311 4 4 4 4.12311 4.24264 3.60555 3.16228 3 3 3.16228 3.60555 4.24264 5 4.12311 3.16228 2.23607 1.41421 1 1 1 1 1.41421 1.41421 1 1 1 1.41421 2.23607 2.82843 3.60555 4.24264 5 5.83095 6.7082 6.08276 5.09902 4.12311 3.16228 2.23607 1.41421 1 1 0 0 0 0 1 1 1 1.41421 2 1 0 0 1 1 0 0 0 1 1 1 1.41421 2 2 1 0 0 0 1 1.41421 1 0 0 1 2 2.23607 2.82843 3.60555 4.24264 5 5.83095 6.7082 6.08276 5.09902 4.12311 3.16228 2.23607 1.41421 1 0 0 0 0 0 1 1 0 0 0 1 1.41421 2.23607 2.82843 3.60555 4.24264 5 5 4.47214 3.60555 2.82843 2.23607 2 2 1.41421 1 0 0 0 1 0 0 1 1.41421 1 0 0 0 0 0 0 0 0 0 1 1.41421 2.23607 2.82843 3.60555 2.82843 2.23607 2 2 2 2 2 2 1 0 0 1 1 0 0 1 1.41421 2.23607 2.82843 3.60555 4.47214 5 4.24264 3.60555 3.16228 3 3 3.16228 3.60555 4.24264 5 5.83095 6.7082 7.61577 8.48528 9.21954 10 10.8167 11.6619 12.53 13.4164 14.3178 15.2315 16.1555 17.088 18.0278 18.9737 19.799 20.5183 21.095 21.6333 22.2036 22.8035 23.4307 24.0832 24.7588 25.4558 26.1725 26.9072 27.6586 28.4253 29.2062 30 30.8058 31.6228 31.8904 31.1448 30.4138 29.6985 29 28.3196 27.6586 27.0185 26.4008 25.807 25.2389 24.6982 24.1868 23.7065 23.2594 22.8473 22.4722 22.1359 21.8403 21.587 21.3776 21.2132 21.095 21.0238 21 21 21 21.0238 21.095 21.2132 20.2237 19.2354 18.2483 17.2627 16.2788 15.2971 14.3178 13.3417 12.3693 11.4018 10.4403 9.48683 8.544 7.61577 6.7082 5.83095 5 4.24264 3.60555 3.16228 3 3 3.16228 3.60555 4.24264 5 5.83095 6.7082 7.61577 8.544 9.48683 10.4403 11.4018 11.7047 12.083 12.53 13.0384 13.6015 14.2127 14.8661 15.5242 14.7648 13.8924 13.0384 12.2066 11.4018 10.6301 9.8995 9.21954 8.60233 8.06226 7.61577 7.28011 7.07107 7 7 7.07107 7.28011 7.61577 8.06226 8.60233 9.21954 9.8995 10.6301 11.4018 12.2066 12 11 10 9 8 7 6 5 4 3 2 1 0
0 1 2 3 4 5 6 7 8 9 10 11 12 13 14 15 16 17 18 19 20 21 22 23 24 25 26 27 28 29 30 31 32 31.6228 30.8058 30 29.2062 28.4253 27.6586 26.9072 26.1725 25.4558 24.7588 24.0832 23.4307 22.8035 21.8403 20.8806 19.9249 18.9737 18.0278 17.088 16.1555 15.2315 14.3178 13.4164 12.53 11.6619 10.8167 10 9.21954 8.48528 7.81025 7.2111 6.7082 6.32456 6 5 4 3 2 1 0 0 1 1 0 0 1 2 3 4 5 6 6 6.08276 6.32456 6.7082 7.2111 7.61577 7 6 5 4 3 2 1 0 0 1 1 0 1 1 1 1 0 1 1.41421 2.23607 3.16228 4.12311 5 5.65685 6.40312 7.2111 8.06226 8.94427 9.84886 10.198 9.21954 8.24621 7.28011 6.32456 5.38516 4.47214 3.60555 2.82843 2 1 0 0 0 0 0 1 1 0 0 0 1 2 2.23607 2.82843 3.60555 4 4.12311 4.12311 4 4 4.12311 4.47214 5 5.65685 6.40312 7.07107 7.81025 8 7.2111 6.40312 5.65685 5 4.47214 4.12311 4 4 4.12311 3.60555 2.82843 2.23607 1.41421 1 1 1.41421 2 1 0 0 1 1.41421 2.23607 1.41421 1 0 1 1.41421 2 2.23607 2.82843 2.82843 2.23607 1.41421 1 0 0 1 2 3 4 5 5 5 5 4.47214 3.60555 2.82843 2.23607 2 2 2.23607 2.82843 3.60555 4.47214 4.47214 3.60555 2.82843 2.23607 2 2 2 2 2 1 0 0 0 1 1.41421 2.23607 3.16228 4.12311 5 5.83095 6.7082 6 5 4 3 2 1 0 0 0 0 1 0 0 0 0 1 1 1.41421 1 0 0 1 1 1 0 0 0 0 1 1 1.41421 1.41421 1 1 0 0 1 1 0 0 1 1 1.41421 2.23607 2.82843 3.60555 4.47214 5.38516 6.32456 5.65685 5 4.24264 3.60555 2.82843 2.23607 1.41421 1 0 0 0 1 1 0 0 1 1 1.41421 2.23607 2.82843 3.60555 4.24264 5 5.65685 5.83095 5 4.24264 3.60555 3.16228 3 2.82843 2.23607 1.41421 1 1 0 0 0 0 0 1 1 0 0 0 0 0 0 0 0 0 1 2 2.82843 3.16228 3 2.23607 1.41421 1 1 1 1.41421 2.23607 2.23607 1.41421 1 1 1.41421 1.41421 1 1 1.41421 2.23607 2.82843 3.60555 4.24264 5 5.65685 5 4.47214 4.12311 4 4 4.12311 4.47214 5 5.65685 6.40312 7.2111 8.06226 8.94427 9.84886 10.6301 11.4018 12.2066 13.0384 13.8924 14.7648 15.6525 16.5529 17.4642 18.3848 19.3132 20.2485 21.1896 21.9317 22.4722 23.0217 23.6008 24.2074 24.8395 25.4951 26.1725 26.8701 27.5862 28.3196 29.0689 29.8329 30.6105 31.4006 32.0156 31.241 30.4795 29.7321 29 28.2843 27.5862 26.9072 26.2488 25.6125 25 24.4131 23.8537 23.3238 22.8254 22.3607 21.9317 21.5407 21.1896 20.8806 20.6155 20.3961 20.2237 20.0998 20.025 20 20 20 20.025 20.0998 20.2237 20.3961 19.4165 18.4391 17.4642 16.4924 15.5242 14.5602 13.6015 12.6491 11.7047 10.7703 9.84886 8.94427 8.06226 7.2111 6.40312 5.65685 5 4.47214 4.12311 4 4 4.12311 4.47214 5 5.65685 6.40312 7.2111 8.06226 8.94427 9.84886 10.198 10.4403 10.7703 11.1803 11.6619 12.2066 12.8062 13.4536 14.1421 14.5602 14.3178 13.4164 12.53 11.6619 10.8167 10 9.21954 8.48528 7.81025 7.2111 6.7082 6.32456 6.08276 6 6 6.08276 6.32456 6.7082 7.2111 7.81025 8.48528 9.21954 10 10.8167 11.6619 12 11 10 9 8 7 6 5 4 3 2 1 0
0 1 2 3 4 5 6 7 8 9 10 11 12 13 14 15 16 17 18 19 20 21 22 23 24 25 26 27 28 29 30 31 32 32.2025 31.4006 30.6105 29.8329 29.0689 28.3196 27.5862 26.8701 26.1725 25.4951 24.8395 24.0416 23.0868 22.1359 21.1896 20.2485 19.3132 18.3848 17.4642 16.5529 15.6525 14.7648 13.8924 13.0384 12.2066 11.4018 10.6301 9.8995 9.21954 8.60233 8.06226 7.61577 7.07107 6.08276 5.09902 4.12311 3.16228 2.23607 1.41421 1 1 0 0 1 1 1.41421 2.23607 3.16228 4.12311 5 5 5 5.09902 5.38516 5.83095 6.32456 6.7082 7 6 5 4 3 2 1 0 0 0 0 0 1 1 0 0 0 1 2 2.82843 3.60555 4.47214 5.38516 6.32456 7.07107 7.81025 8.60233 9.43398 10.2956 10.0499 9.05539 8.06226 7.07107 6.08276 5.09902 4.12311 3.16228 2.23607 1.41421 1 1 1 1 1 1 1.41421 1.41421 1 1 1 1.41421 2.23607 2.82843 3 3 3 3.16228 3.16228 3 3 3.16228 3.60555 4.24264 5 5.65685 6.40312 7.2111 8.06226 7.61577 7.07107 6.40312 5.83095 5.38516 5.09902 5 5 5 4.24264 3.60555 2.82843 2.23607 2 2 2.23607 2 1 0 0 0 1 1.41421 2 1 0 0 1 1 1.41421 2.23607 2.82843 2.82843 2.23607 1.41421 1 0 1 2 3 4 4 4 4 4.12311 4.12311 3.16228 2.23607 1.41421 1 1 1.41421 2.23607 3.16228 4.12311 4.47214 3.60555 2.82843 2.23607 2 2 1.41421 1 1 1 0 1 0 0 1 2 2.82843 3.60555 4.47214 5.38516 6.32456 6 5 4 3 2 1 0 0 0 0 1 1 0 0 0 0 0 1 1.41421 1 0 0 1 1.41421 1 1 1 0 0 0 1 1.41421 2 1.41421 1 0 0 1 1 0 0 0 1 1.41421 2.23607 3.16228 4.12311 5 5.38516 5 4.24264 3.60555 2.82843 2.23607 1.41421 1 0 0 1 1 1 0 0 1 1.41421 2 2.23607 2.82843 3.60555 4.24264 5 5.65685 6.40312 5.83095 5 4.24264 3.60555 3.16228 3 2.82843 2.23607 2 2 1.41421 1 1 0 0 0 0 1 1 0 0 0 0 0 0 0 1 1.41421 2 2 2.23607 2 2 1 0 0 0 1 2 2.82843 2.23607 2 2 2.23607 2.23607 2 2 2.23607 2.82843 3.60555 4.24264 5 5.65685 6.40312 5.83095 5.38516 5.09902 5 5 5.09902 5.38516 5.83095 6.40312 7.07107 7.81025 8.60233 9.43398 10.2956 11.1803 12.0416 12.8062 13.6015 14.4222 15.2643 16.1245 17 17.8885 18.7883 19.6977 20.6155 21.5407 22.4722 23.3238 23.8537 24.4131 25 25.6125 26.2488 26.9072 27.5862 28.2843 29 29.7321 30.4795 31.241 32.0156 31.4006 30.6105 29.8329 29.0689 28.3196 27.5862 26.8701 26.1725 25.4951 24.8395 24.2074 23.6008 23.0217 22.4722 21.9545 21.4709 21.0238 20.6155 20.2485 19.9249 19.6469 19.4165 19.2354 19.105 19.0263 19 19 19 19.0263 19.105 19.2354 19.4165 19.6469 18.6815 17.72 16.7631 15.8114 14.8661 13.9284 13 12.083 11.1803 10.2956 9.43398 8.60233 7.81025 7.07107 6.40312 5.83095 5.38516 5.09902 5 5 5.09902 5.38516 5.83095 6.40312 7.07107 7.81025 8.544 8.94427 9.05539 9.21954 9.48683 9.84886 10.2956 10.8167 11.4018 12.0416 12.7279 13.4536 13.6015 13.3417 13 12.083 11.1803 10.2956 9.43398 8.60233 7.81025 7.07107 6.40312 5.83095 5.38516 5.09902 5 5 5.09902 5.38516 5.83095 6.40312 7.07107 7.81025 8.60233 9.43398 10.2956 11.1803 12 11 10 9 8 7 6 5 4 3 2 1 0
0 1 2 3 4 5 6 7 8 9 10 11 12 13 14 15 16 17 18 19 20 21 22 23 24 25 26 27 28 29 30 31 32 32.8024 32.0156 31.241 30.4795 29.7321 29 28.2843 27.5862 26.9072 26.2488 25.2982 24.3516 23.4094 22.4722 21.5407 20.6155 19.6977 18.7883 17.8885 17 16.1245 15.2643 14.4222 13.6015 12.8062 12.0416 11.3137 10.6301 10 9.43398 8.94427 8.24621 7.28011 6.32456 5.38516 4.47214 3.60555 2.82843 2.23607 2 1 0 0 1 2 2.23607 2.82843 3.60555 4.12311 4 4 4 4.12311 4.47214 5 5.38516 5.83095 6.40312 6 5 4 3 2 1 0 1 0 0 0 1 1 0 1 1 1.41421 2.23607 3.16228 4.12311 5 5.83095 6.7082 7.61577 8.48528 9.21954 10 10.8167 10 9 8 7 6 5 4 3 2 1 0 0 1 1 0 0 1 1 0 0 0 1 1.41421 2.23607 2 2 2 2.23607 2.23607 2 2 2.23607 2.82843 3.60555 4.24264 5 5.83095 6.7082 7.2111 6.7082 6.32456 6.08276 6 6 6 6 6 5.65685 5 4.24264 3.60555 3.16228 3 3 3.16228 2.23607 1.41421 1 0 0 0 1 2 1.41421 1 0 0 0 1 1.41421 2 2 2 1 0 0 1 2 3 3 3 3 3 3.16228 3.60555 3 2 1 0 0 1 2 2.82843 3.60555 4.12311 3.16228 2.23607 1.41421 1 1 1 0 0 1 0 0 1 0 1 1.41421 2.23607 3.16228 4.12311 5.09902 6.08276 6.08276 5.09902 4.12311 3.16228 2.23607 1.41421 1 0 0 1 1.41421 1.41421 1 1 1 1 0 1 1.41421 1.41421 1 0 1 1.41421 2 2 1.41421 1 1 0 0 1 1.41421 1 1 1 0 0 0 1 1 0 0 1 2 2.82843 3.60555 4.12311 4.47214 4.24264 3.60555 2.82843 2.23607 1.41421 1 0 0 1 1.41421 1 0 0 1 1 1.41421 2.23607 2.82843 3.60555 4.24264 5 5.65685 6 6 5.38516 4.47214 3.60555 2.82843 2.23607 2 2 1.41421 1 1 1.41421 2 1.41421 1 1 0 0 1 1 0 0 0 1 0 1 0 1 1 1 1 1.41421 1 1 1 0 0 0 1 2 3 3.16228 3 3 3.16228 3.16228 3 3 3.16228 3.60555 4.24264 5 5.65685 6.40312 7.07107 6.7082 6.32456 6.08276 6 6 6.08276 6.32456 6.7082 7.2111 7.81025 8.48528 9.21954 10 10.8167 11.6619 12.53 13.4164 14.2127 15 15.8114 16.6433 17.4929 18.3576 19.2354 20.1246 21.0238 21.9317 22.8473 23.7697 24.6982 25.2389 25.807 26.4008 27.0185 27.6586 28.3196 29 29.6985 30.4138 31.1448 31.8904 31.6228 30.8058 30 29.2062 28.4253 27.6586 26.9072 26.1725 25.4558 24.7588 24.0832 23.4307 22.8035 22.2036 21.6333 21.095 20.5913 20.1246 19.6977 19.3132 18.9737 18.6815 18.4391 18.2483 18.1108 18.0278 18 18 18 18.0278 18.1108 18.2483 18.4391 18.6815 18.9737 18.0278 17.088 16.1555 15.2315 14.3178 13.4164 12.53 11.6619 10.8167 10 9.21954 8.48528 7.81025 7.2111 6.7082 6.32456 6.08276 6 6 6.08276 6.32456 6.7082 7 7.07107 7.28011 7.61577 8 8.06226 8.24621 8.544 8.94427 9.43398 10 10.6301 11.3137 12.0416 12.8062 12.6491 12.3693 12.1655 11.7047 10.7703 9.84886 8.94427 8.06226 7.2111 6.40312 5.65685 5 4.47214 4.12311 4 4 4.12311 4.47214 5 5.65685 6.40312 7.2111 8.06226 8.94427 9.84886 10.7703 11.7047 11 10 9 8 7 6 5 4 3 2 1 0
0 1 2 3 4 5 6 7 8 9 10 11 12 13 14 15 16 17 18 19 20 21 22 23 24 25 26 27 28 29 30 31 32 33 32.6497 31.8904 31.1448 30.4138 29.6985 29 28.3196 27.5136 26.5707 25.632 24.6982 23.7697 22.8473 21.9317 21.0238 20.1246 19.2354 18.3576 17.4929 16.6433 15.8114 15 14.2127 13.4536 12.7279 12.0416 11.4018 10.8167 10.2956 9.48683 8.544 7.61577 6.7082 5.83095 5 4.24264 3.60555 3.16228 2.23607 1.41421 1 1 1.41421 2.23607 3.16228 3.60555 3.60555 3.16228 3 3 3 3.16228 3.60555 4.12311 4.47214 5 5.65685 6 5 4 3 2 1 0 0 0 1 0 0 1 0 1 2 2.23607 2.82843 3.60555 4.47214 5.38516 6.32456 7.2111 8.06226 8.94427 9.84886 10.6301 11 10 9 8 7 6 5 4 3 2 1 0 0 0 1 0 0 0 1 0 1 0 0 1 1.41421 1 1 1 1.41421 1.41421 1 1 1.41421 2.23607 2.82843 3.60555 4.47214 5.38516 6.32456 6.40312 5.83095 5.38516 5.09902 5 5 5 5.09902 5.38516 5.83095 5.65685 5 4.47214 4.12311 4 4 3.60555 2.82843 2.23607 1.41421 1 0 0 1 2 2.23607 1.41421 1 1 0 0 1 1 1 1 1 0 1 1.41421 2 2 2 2 2 2 2.23607 2.82843 3 2 1 0 0 1 1.41421 2.23607 2.82843 3.60555 3 2 1 0 0 1 0 0 0 1 0 1 0 0 1 2 3 4 5 6 6.32456 5.38516 4.47214 3.60555 2.82843 2.23607 1.41421 1 0 1 1.41421 2 2 2 2 1 0 0 1 2 1 0 0 1 2 2.82843 2 1 0 0 0 0 1 0 0 0 1 1 0 1 1 0 0 1 1.41421 2.23607 2.82843 3.16228 3.60555 3.60555 2.82843 2.23607 1.41421 1 0 0 1 1.41421 2 1 0 0 0 0 1 1.41421 2.23607 3.16228 4.12311 5.09902 5.09902 5 5 5 4.12311 3.16228 2.23607 1.41421 1 1 1 0 0 1 2 2.23607 2 1.41421 1 1 1.41421 1.41421 1 0 0 1 0 0 0 0 0 0 0 1 0 0 1 1 1 1 1.41421 2.23607 3.16228 4.12311 4 4 4.12311 4.12311 4 4 4.12311 4.47214 5 5.65685 6.40312 7.07107 7.81025 7.61577 7.28011 7.07107 7 7 7.07107 7.28011 7.61577 8.06226 8.60233 9.21954 9.8995 10.6301 11.4018 12.2066 13.0384 13.8924 14.7648 15.6205 16.4012 17.2047 18.0278 18.868 19.7231 20.5913 21.4709 22.3607 23.2594 24.1661 25.0799 26 26.6271 27.2029 27.8029 28.4253 29.0689 29.7321 30.4138 31.1127 31.8277 31.9061 31.0644 30.2324 29.4109 28.6007 27.8029 27.0185 26.2488 25.4951 24.7588 24.0416 23.3452 22.6716 22.0227 21.4009 20.8087 20.2485 19.7231 19.2354 18.7883 18.3848 18.0278 17.72 17.4642 17.2627 17.1172 17.0294 17 17 17 17.0294 17.1172 17.2627 17.4642 17.72 18.0278 18.3848 17.4642 16.5529 15.6525 14.7648 13.8924 13.0384 12.2066 11.4018 10.6301 9.8995 9.21954 8.60233 8.06226 7.61577 7.28011 7.07107 7 6.7082 6.32456 6.08276 6 6 6.08276 6.32456 6.7082 7 7.07107 7.28011 7.61577 8.06226 8.60233 9.21954 9.8995 10.6301 11.4018 12.083 11.7047 11.4018 11.1803 11.0454 10.4403 9.48683 8.544 7.61577 6.7082 5.83095 5 4.24264 3.60555 3.16228 3 3 3.16228 3.60555 4.24264 5 5.83095 6.7082 7.61577 8.544 9.48683 10.4403 11.4018 11 10 9 8 7 6 5 4 3 2 1 0
0 1 2 3 4 5 6 7 8 9 10 11 12 13 14 15 16 17 18 19 20 21 22 23 24 25 26 27 28 29 30 31 32 33 33.3017 32.5576 31.8277 31.1127 30.4138 29.7321 28.7924 27.8568 26.9258 26 25.0799 24.1661 23.2594 22.3607 21.4709 20.5913 19.7231 18.868 18.0278 17.2047 16.4012 15.6205 14.8661 14.1421 13.4536 12.8062 12.2066 11.6619 10.7703 9.84886 8.94427 8.06226 7.2111 6.40312 5.65685 5 4.47214 3.60555 2.82843 2.23607 2 2 2.23607 2.82843 3.60555 3.60555 2.82843 2.23607 2 2 2 2.23607 2.82843 3.16228 3.60555 4.24264 5 5.65685 5.09902 4.12311 3.16228 2.23607 1.41421 1 1 1 1.41421 1 0 0 0 1 2 3 3.60555 4.24264 5 5.83095 6.7082 7.61577 8.544 9.43398 10.2956 11.1803 11 10 9 8 7 6 5 4 3 2 1 0 0 0 1 1 0 0 0 0 1 1 0 1 1 0 0 0 1 1 0 0 1 1.41421 2.23607 3.16228 4.12311 5.09902 6.08276 5.65685 5 4.47214 4.12311 4 4 4 4.12311 4.47214 5 5 5 5.09902 5.09902 5 5 4.24264 3.60555 2.82843 2.23607 1.41421 1 1 1.41421 2.23607 2.82843 2.23607 2 1.41421 1 0 0 0 0 0 0 0 1 1 1 1 1 1 1 1 1.41421 2.23607 2.82843 2 1 0 0 0 1 1.41421 2.23607 3.16228 3 2 1 0 0 1 0 1 0 1 0 0 1 0 1 2 3 4 5 6 6.7082 5.83095 5 4.24264 3.60555 2.82843 2 1 0 0 1 1 1.41421 2 2 1.41421 1 0 1 2 1.41421 1 0 1 1.41421 2.23607 2 1 0 0 0 0 0 0 0 0 1 1 0 0 1 1 0 0 1 1.41421 2 2.23607 2.82843 3.16228 2.23607 1.41421 1 0 0 1 1.41421 2.23607 2.23607 1.41421 1 1 1 0 0 1 2 3 4 4.47214 4.12311 4 4 4 4 3 2 1 0 0 0 0 0 1 2 3 2.82843 2.23607 2 2 2.23607 2.23607 1.41421 1 1 1.41421 1 0 0 0 0 0 0 1 0 0 0 1 1.41421 2 2.23607 2.82843 3.60555 4.47214 5 5 5.09902 5.09902 5 5 5.09902 5.38516 5.83095 6.40312 7.07107 7.81025 8.48528 8.544 8.24621 8.06226 8 8 8.06226 8.24621 8.544 8.94427 9.43398 10 10.6301 11.3137 12.0416 12.8062 13.6015 14.4222 15.2643 16.1245 17 17.8045 18.6011 19.4165 20.2485 21.095 21.9545 22.8254 23.7065 24.5967 25.4951 26.4008 27.313 28.0179 28.6007 29.2062 29.8329 30.4795 31.1448 31.8277 32.249 31.3847 30.5287 29.6816 28.8444 28.0179 27.2029 26.4008 25.6125 24.8395 24.0832 23.3452 22.6274 21.9317 21.2603 20.6155 20 19.4165 18.868 18.3576 17.8885 17.4642 17.088 16.7631 16.4924 16.2788 16.1245 16.0312 16 16 16 16.0312 16.1245 16.2788 16.4924 16.7631 17.088 17.4642 17.8885 17 16.1245 15.2643 14.4222 13.6015 12.8062 12.0416 11.3137 10.6301 10 9.43398 8.94427 8.48528 7.81025 7.07107 6.40312 5.83095 5.38516 5.09902 5 5 5.09902 5.38516 5.83095 6 6.08276 6.32456 6.7082 7.2111 7.81025 8.48528 9.21954 10 10.8167 11.1803 10.7703 10.4403 10.198 10.0499 10 9.21954 8.24621 7.28011 6.32456 5.38516 4.47214 3.60555 2.82843 2.23607 2 2 2.23607 2.82843 3.60555 4.47214 5.38516 6.32456 7.28011 8.24621 9.21954 10.198 11.1803 11 10 9 8 7 6 5 4 3 2 1 0
0 1 2 3 4 5 6 7 8 9 10 11 12 13 14 15 16 17 18 19 20 21 22 23 24 25 26 27 28 29 30 31 32 33 33.9706 33.2415 32.5269 31.8277 31.0161 30.0832 29.1548 28.2312 27.313 26.4008 25.4951 24.5967 23.7065 22.8254 21.9545 21.095 20.2485 19.4165 18.6011 17.8045 17.0294 16.2788 15.5563 14.8661 14.2127 13.6015 13 12.083 11.1803 10.2956 9.43398 8.60233 7.81025 7.07107 6.40312 5.83095 5 4.24264 3.60555 3.16228 3 3 3.16228 3.60555 4.12311 3.16228 2.23607 1.41421 1 1 1 1.41421 2 2.23607 2.82843 3.60555 4.24264 5 5.38516 4.47214 3.60555 2.82843 2.23607 2 2 2 2 1 0 0 1 1.41421 2.23607 3.16228 4.12311 5 5.65685 6.40312 7.2111 8.06226 8.94427 9.84886 10.7703 11.0454 11.0454 10.0499 9.05539 8.06226 7.07107 6.08276 5.09902 4.12311 3.16228 2.23607 1.41421 1 0 0 1 1 0 0 0 0 0 1 0 0 1 0 0 0 0 1 0 0 0 1 2 3 4 5 5.65685 5 4.24264 3.60555 3.16228 3 3 3 3.16228 3.60555 4 4 4 4.12311 4.47214 5 5.38516 5 4.24264 3.60555 2.82843 2.23607 2 2 2.23607 2.82843 3.60555 3.16228 2.82843 2.23607 1.41421 1 1 1 1 1 1 1 0 0 0 0 0 0 0 0 1 1.41421 2.23607 2 1 0 0 0 0 1 2 3 3.16228 2.23607 1.41421 1 1 1 0 1 0 1 1 0 1 0 1 2 3 4 5 6 7 6.40312 5.65685 5 4.12311 3.16228 2.23607 1.41421 1 0 0 0 1 1 1 1 1 0 1 2 2 1 0 0 1 1.41421 2.23607 1.41421 1 0 0 0 0 0 0 1 1.41421 1.41421 1 0 1 1 1 0 0 1 1 1.41421 2.23607 2.82843 2 1 0 0 1 1 1 1.41421 2.23607 2.23607 2 1 0 0 0 1 2 3 4 3.60555 3.16228 3 3 3 3.16228 3 2 1 0 0 0 0 1 1.41421 2.23607 3.16228 3.60555 3.16228 3 3 3.16228 2.82843 2.23607 2 2 2.23607 1.41421 1 1 1 1 1 1 1.41421 1 0 0 0 1 2 3 3.60555 4.24264 5 5.83095 6 6.08276 6.08276 6 6 6.08276 6.32456 6.7082 7.2111 7.81025 8.48528 9.21954 9.48683 9.21954 9.05539 9 9 9.05539 9.21954 9.48683 9.84886 10.2956 10.8167 11.4018 12.0416 12.7279 13.4536 14.2127 15 15.8114 16.6433 17.4929 18.3576 19.2094 20 20.8087 21.6333 22.4722 23.3238 24.1868 25.0599 25.9422 26.8328 27.7308 28.6356 29.4109 30 30.6105 31.241 31.8904 32.5576 31.7648 30.8869 30.0167 29.1548 28.3019 27.4591 26.6271 25.807 25 24.2074 23.4307 22.6716 21.9317 21.2132 20.5183 19.8494 19.2094 18.6011 18.0278 17.4929 17 16.5529 16.1555 15.8114 15.5242 15.2971 15.1327 15.0333 15 15 15 15.0333 15.1327 15.2971 15.5242 15.8114 16.1555 16.5529 17 17.4929 16.6433 15.8114 15 14.2127 13.4536 12.7279 12.0416 11.1803 10.2956 9.43398 8.60233 7.81025 7.07107 6.40312 5.65685 5 4.47214 4.12311 4 4 4.12311 4.47214 5 5 5.09902 5.38516 5.83095 6.40312 7.07107 7.81025 8.60233 9.43398 10.2956 10.2956 9.84886 9.48683 9.21954 9.05539 9 9 8.06226 7.07107 6.08276 5.09902 4.12311 3.16228 2.23607 1.41421 1 1 1.41421 2.23607 3.16228 4.12311 5.09902 6.08276 7.07107 8.06226 9.05539 10.0499 11.0454 11 10 9 8 7 6 5 4 3 2 1 0
0 1 2 3 4 5 6 7 8 9 10 11 12 13 14 15 16 17 18 19 20 21 22 23 24 25 26 27 28 29 30 31 32 33 34 33.9411 33.2415 32.311 31.3847 30.4631 29.5466 28.6356 27.7308 26.8328 25.9422 25.0599 24.1868 23.3238 22.4722 21.6333 20.8087 20 19.2094 18.4391 17.6918 16.9706 16.2788 15.6205 15 14.3178 13.4164 12.53 11.6619 10.8167 10 9.21954 8.48528 7.81025 7.2111 6.40312 5.65685 5 4.47214 4.12311 4 4 4.12311 4.47214 4 3 2 1 0 0 0 1 1 1.41421 2.23607 2.82843 3.60555 4.47214 5.38516 5 4.24264 3.60555 3.16228 3 3 3 2.23607 1.41421 1 1 1.41421 2.23607 2.82843 3.60555 4.47214 5.38516 6.32456 7.07107 7.81025 8.60233 9.43398 10 10 10.0499 10.198 10.0499 9.05539 8.06226 7.07107 6.08276 5.09902 4.12311 3.16228 2.23607 1.41421 1 1 1 1 0 0 0 1 1 0 1 1 0 1 1 0 1 0 1 1 0 0 1 2 3 4 5 5 4.24264 3.60555 2.82843 2.23607 2 2 2 2.23607 2.82843 3 3 3 3.16228 3.60555 4.24264 4.47214 4.12311 4 4 3.60555 3.16228 3 3 3.16228 3.60555 4.24264 4.12311 3.60555 2.82843 2.23607 2 2 2 2 2 2 1 0 1 1 1 1 1 1 0 0 1 1.41421 2.23607 1.41421 1 0 0 0 1 2 3 3.60555 2.82843 2.23607 2 2 1 0 0 0 1 1 0 0 0 1 2 3 4 5 6 6.7082 5.83095 5 4.24264 3.60555 3.16228 2.82843 2.23607 1.41421 1 1 0 0 0 0 0 0 0 1 2 2.23607 1.41421 1 0 0 1 1.41421 2 1 0 0 0 1 0 0 1 2 2 1 0 0 0 0 1 0 0 0 1 1.41421 2.23607 2 1 0 1 0 0 0 1 1.41421 2.23607 2 1 0 1 1 1.41421 2.23607 3.16228 3.60555 2.82843 2.23607 2 2 2 2.23607 2.82843 2.23607 1.41421 1 0 0 0 1 2 2.82843 3.60555 4.47214 4.12311 4 4 4.12311 3.60555 3.16228 3 3 2.82843 2.23607 2 2 2 2 2 2 2.23607 1.41421 1 0 0 1 2 3 4 5 5.65685 6.40312 7 7.07107 7.07107 7 7 7.07107 7.28011 7.61577 8.06226 8.60233 9.21954 9.8995 10.4403 10.198 10.0499 10 10 10.0499 10.198 10.4403 10.7703 11.1803 11.6619 12.2066 12.8062 13.4536 14.1421 14.8661 15.6205 16.4012 17.2047 18.0278 18.868 19.7231 20.5913 21.4009 22.2036 23.0217 23.8537 24.6982 25.5539 26.4197 27.2947 28.178 29.0689 29.9666 30.8058 31.4006 32.0156 32.6497 32.2025 31.305 30.4138 29.5296 28.6531 27.7849 26.9258 26.0768 25.2389 24.4131 23.6008 22.8035 22.0227 21.2603 20.5183 19.799 19.105 18.4391 17.8045 17.2047 16.6433 16.1245 15.6525 15.2315 14.8661 14.5602 14.3178 14.1421 14.0357 14 14 14 14.0357 14.1421 14.3178 14.5602 14.8661 15.2315 15.6525 16.1245 16.6433 17.2047 16.4012 15.5242 14.5602 13.6015 12.6491 11.7047 10.7703 9.84886 8.94427 8.06226 7.2111 6.40312 5.65685 5 4.24264 3.60555 3.16228 3 3 3.16228 3.60555 4 4 4.12311 4.47214 5 5.65685 6.40312 7.2111 8.06226 8.94427 9.84886 9.43398 8.94427 8.544 8.24621 8.06226 8 8 8 7 6 5 4 3 2 1 0 0 1 2 3 4 5 6 7 8 9 10 11 11 10 9 8 7 6 5 4 3 2 1 0
0 1 2 3 4 5 6 7 8 9 10 11 12 13 14 15 16 17 18 19 20 21 22 23 24 25 26 27 28 29 30 31 32 33 34 34.5398 33.6155 32.6956 31.7805 30.8707 29.9666 29.0689 28.178 27.2947 26.4197 25.5539 24.6982 23.8537 23.0217 22.2036 21.4009 20.6155 19.8494 19.105 18.3848 17.6918 17.0294 16.4012 15.6525 14.7648 13.8924 13.0384 12.2066 11.4018 10.6301 9.8995 9.21954 8.60233 7.81025 7.07107 6.40312 5.83095 5.38516 5.09902 5 5 5.09902 5 4 3 2 1 0 0 0 0 0 1 1.41421 2.23607 3.16228 4.12311 5.09902 5 4.24264 3.60555 3.16228 3 3 3.16228 2.82843 2.23607 2 2 2.23607 2.82843 3.60555 4.24264 5 5.83095 6.7082 7.61577 8.48528 9.21954 9.05539 9 9 9.05539 9.21954 9.48683 9 8 7 6 5 4 3 2 1 0 0 0 0 0 0 0 1 0 0 1 1 0 0 1 0 1 0 0 1 1 1 1.41421 2.23607 3.16228 4.12311 5.09902 4.47214 3.60555 2.82843 2.23607 1.41421 1 1 1 1.41421 2 2 2 2 2.23607 2.82843 3.60555 3.60555 3.16228 3 3 3.16228 3.60555 4 4 4.12311 4.47214 5 5 4.24264 3.60555 3.16228 3 3 3 3 3 2 1 0 1 1.41421 2 2 2 1.41421 1 0 0 1 2 2.23607 1.41421 1 0 0 1 2 3 4 3.60555 3.16228 3 2 1 0 0 0 1 1 1 1 1 1.41421 2.23607 3.16228 4.12311 5.09902 6.08276 6.32456 5.38516 4.47214 3.60555 2.82843 2.23607 2 2 2.23607 2 1.41421 1 1 1 1 1 1 1 1.41421 2.23607 2.82843 2.23607 1.41421 1 0 0 1 2 1 0 1 1 1.41421 1 1 1.41421 2.23607 2.23607 1.41421 1 1 0 0 0 0 0 0 0 1 1.41421 2 1 0 0 0 1 0 0 1 2 2 1 0 1 1.41421 2.23607 2.82843 3.60555 3.16228 2.23607 1.41421 1 1 1 1.41421 2.23607 2.82843 2.23607 1.41421 1 1 1 1.41421 2.23607 3.16228 4.12311 4.12311 4 4 4.12311 4.47214 4.47214 4.12311 4 4 3.60555 3.16228 3 3 3 3 3 3 2.82843 2.23607 1.41421 1 1 1.41421 2.23607 3.16228 4.12311 5.09902 6.08276 7.07107 7.81025 8.06226 8.06226 8 8 8.06226 8.24621 8.544 8.94427 9.43398 10 10.6301 11.3137 11.1803 11.0454 11 11 11.0454 11.1803 11.4018 11.7047 12.083 12.53 13.0384 13.6015 14.2127 14.8661 15.5563 16.2788 17.0294 17.8045 18.6011 19.4165 20.2485 21.095 21.9545 22.8035 23.6008 24.4131 25.2389 26.0768 26.9258 27.7849 28.6531 29.5296 30.4138 31.305 32.2025 32.8024 32.6956 31.7805 30.8707 29.9666 29.0689 28.178 27.2947 26.4197 25.5539 24.6982 23.8537 23.0217 22.2036 21.4009 20.6155 19.8494 19.105 18.3848 17.6918 17.0294 16.4012 15.8114 15.2643 14.7648 14.3178 13.9284 13.6015 13.3417 13.1529 13.0384 13 13 13 13.0384 13.1529 13.3417 13.6015 13.9284 14.3178 14.7648 15.2643 15.8114 16.4012 16.2788 15.2971 14.3178 13.3417 12.3693 11.4018 10.4403 9.48683 8.544 7.61577 6.7082 5.83095 5 4.24264 3.60555 2.82843 2.23607 2 2 2.23607 2.82843 3 3 3.16228 3.60555 4.24264 5 5.83095 6.7082 7.61577 8.544 9.21954 8.60233 8.06226 7.61577 7.28011 7.07107 7 7 7.07107 7 6 5 4 3 2 1 0 0 1 2 3 4 5 6 7 8 8.94427 9.84886 10.7703 11 10 9 8 7 6 5 4 3 2 1 0
0 1 2 3 4 5 6 7 8 9 10 11 12 13 14 15 16 17 18 19 20 21 22 23 24 25 26 27 28 29 30 31 32 33 34 34.9285 34.0147 33.1059 32.2025 31.305 30.4138 29.5296 28.6531 27.7849 26.9258 26.0768 25.2389 24.4131 23.6008 22.8035 22.0227 21.2603 20.5183 19.799 19.105 18.4391 17.8045 17 16.1245 15.2643 14.4222 13.6015 12.8062 12.0416 11.3137 10.6301 10 9.21954 8.48528 7.81025 7.2111 6.7082 6.32456 6.08276 6 6 6.08276 5.09902 4.12311 3.16228 2.23607 1.41421 1 1 0 0 0 0 1 2 3 4 5 4.47214 3.60555 2.82843 2.23607 2 2 2.23607 2.82843 3.16228 3 3 3.16228 3.60555 4.24264 5 5.65685 6.40312 7.2111 8.06226 8.544 8.24621 8.06226 8 8 8.06226 8.24621 8.544 8.94427 8 7 6 5 4 3 2 1 0 0 1 0 1 0 0 1 0 0 1 1 0 0 1 0 0 1 0 1 2 2 2.23607 2.82843 3.60555 4.47214 5.09902 4.12311 3.16228 2.23607 1.41421 1 0 0 0 1 1 1 1 1 1.41421 2.23607 3.16228 2.82843 2.23607 2 2 2.23607 2.82843 3.60555 4.47214 5.09902 5.38516 5.83095 5.65685 5 4.47214 4.12311 4 4 4 4 3 2 1 0 0 1 1.41421 2.23607 2.82843 2.23607 1.41421 1 0 1 2 2 2 1.41421 1 1 1.41421 2.23607 3.16228 4.12311 4.47214 4.12311 3.16228 2.23607 1.41421 1 0 0 0 0 0 1 2 2.23607 2.82843 3.60555 4.47214 5.38516 6.32456 6.08276 5.09902 4.12311 3.16228 2.23607 1.41421 1 1 1.41421 2 2.23607 2 2 2 2 2 2 2 2.23607 2.82843 3.60555 2.82843 2.23607 1.41421 1 0 1 1.41421 1 0 0 1 1 1.41421 2 2.23607 2.82843 2.82843 2.23607 2 1.41421 1 1 1 1 0 0 0 0 1 2 1 0 0 1 1.41421 1 0 1 1.41421 2 1 0 0 1 1.41421 2.23607 3.16228 3 2 1 0 0 0 1 2 3 2.82843 2.23607 2 2 2 2.23607 2.82843 3.60555 3.60555 3.16228 3 3 3.16228 3.60555 4.24264 5 5 5 4.47214 4.12311 4 4 3.60555 3.16228 3 3 3.16228 2.82843 2.23607 2 2 2.23607 2.82843 3.60555 4.47214 5.38516 6.32456 7.28011 8.24621 9.05539 9.05539 9 9 9.05539 9.21954 9.48683 9.84886 10.2956 10.8167 11.4018 12.0416 12.1655 12.0416 12 12 12.0416 12.1655 12.3693 12.6491 13 13.4164 13.8924 14.4222 15 15.6205 16.2788 16.9706 17.6918 18.4391 19.2094 20 20.8087 21.6333 22.4722 23.3238 24.1868 25 25.807 26.6271 27.4591 28.3019 29.1548 30.0167 30.8869 31.7648 32.6497 33 32.311 31.3847 30.4631 29.5466 28.6356 27.7308 26.8328 25.9422 25.0599 24.1868 23.3238 22.4722 21.6333 20.8087 20 19.2094 18.4391 17.6918 16.9706 16.2788 15.6205 15 14.4222 13.8924 13.4164 13 12.6491 12.3693 12.1655 12.0416 12 12 12 12.0416 12.1655 12.3693 12.6491 13 13.4164 13.8924 14.4222 15 15.6205 16.1245 15.1327 14.1421 13.1529 12.1655 11.1803 10.198 9.21954 8.24621 7.28011 6.32456 5.38516 4.47214 3.60555 2.82843 2.23607 1.41421 1 1 1.41421 2.23607 2 2 2.23607 2.82843 3.60555 4.47214 5.38516 6.32456 7.28011 8.24621 8.48528 7.81025 7.2111 6.7082 6.32456 6.08276 6 6 6.08276 6.32456 6.08276 5.09902 4.12311 3.16228 2.23607 1.41421 1 1 1.41421 2.23607 3.16228 4.12311 5 5.83095 6.7082 7.61577 8.544 9.48683 10.4403 11 10 9 8 7 6 5 4 3 2 1 0
0 1 2 3 4 5 6 7 8 9 10 11 12 13 14 15 16 17 18 19 20 21 22 23 24 25 26 27 28 29 30 31 32 33 34 35 34.4384 33.541 32.6497 31.7648 30.8869 30.0167 29.1548 28.3019 27.4591 26.6271 25.807 25 24.2074 23.4307 22.6716 21.9317 21.2132 20.5183 19.8494 19.2094 18.3576 17.4929 16.6433 15.8114 15 14.2127 13.4536 12.7279 12.0416 11.4018 10.6301 9.8995 9.21954 8.60233 8.06226 7.61577 7.28011 7.07107 7 7 6.32456 5.38516 4.47214 3.60555 2.82843 2.23607 2 1.41421 1 1 0 0 1 2 3 4 5 4.12311 3.16228 2.23607 1.41421 1 1 1.41421 2.23607 3.16228 4 4 4.12311 4.47214 5 5.65685 6.40312 7.07107 7.81025 8.06226 7.61577 7.28011 7.07107 7 7 7.07107 7.28011 7.61577 8.06226 8.06226 7.07107 6.08276 5.09902 4.12311 3.16228 2.23607 1.41421 1 0 0 0 0 1 1 1.41421 1 0 1 1 0 1 1.41421 1 0 0 0 1 2 3 3.16228 3.60555 4.24264 5 5 4 3 2 1 0 0 1 0 0 0 0 0 0 1 2 2.82843 2.23607 1.41421 1 1 1.41421 2.23607 3.16228 4.12311 5 5.83095 6.08276 6 5.83095 5.38516 5.09902 5 5 5 4.12311 3.16228 2.23607 1.41421 1 0 0 1 2 2.82843 2.82843 2 1 0 1 1.41421 1 1 1 1.41421 2 2.23607 2.82843 3.60555 4.47214 5.38516 4.47214 3.60555 2.82843 2.23607 1.41421 1 1 0 1 0 1 1.41421 2.23607 3.16228 4.12311 5 5.38516 5.83095 6 5 4 3 2 1 0 0 1 1 1.41421 2 2.23607 2.82843 3 3 3 3 3.16228 3.60555 4.24264 3.60555 2.82843 2 1 0 0 1 1.41421 1 0 0 0 1 2 2 2.23607 2.82843 3.16228 2.82843 2.23607 2 2 2 1.41421 1 0 0 0 1 1.41421 1 0 0 0 1 1 0 0 1 1.41421 1.41421 1 0 0 1 2 2.82843 3 2 1 0 0 0 1 2 2.82843 2.23607 2 2 2 2 2 2.23607 2.82843 2.82843 2.23607 2 2 2.23607 2.82843 3.60555 4.47214 5.38516 5.83095 5 4.24264 3.60555 3.16228 2.82843 2.23607 2 2 2.23607 2 1.41421 1 1 1.41421 2.23607 3.16228 4.12311 5.09902 6.08276 7.07107 8.06226 9.05539 10.0499 10 10 10.0499 10.198 10.4403 10.7703 11.1803 11.6619 12.2066 12.8062 13.1529 13.0384 13 13 13.0384 13.1529 13.3417 13.6015 13.9284 14.3178 14.7648 15.2643 15.8114 16.4012 17.0294 17.6918 18.3848 19.105 19.8494 20.6155 21.4009 22.2036 23.0217 23.8537 24.6982 25.5539 26.4008 27.2029 28.0179 28.8444 29.6816 30.5287 31.3847 32 32.0156 32 31.9531 31.0161 30.0832 29.1548 28.2312 27.313 26.4008 25.4951 24.5967 23.7065 22.8254 21.9545 21.095 20.2485 19.4165 18.6011 17.8045 17.0294 16.2788 15.5563 14.8661 14.2127 13.6015 13.0384 12.53 12.083 11.7047 11.4018 11.1803 11.0454 11 11 11 11.0454 11.1803 11.4018 11.7047 12.083 12.53 13.0384 13.6015 14.2127 14.8661 15.5563 15.0333 14.0357 13.0384 12.0416 11.0454 10.0499 9.05539 8.06226 7.07107 6.08276 5.09902 4.12311 3.16228 2.23607 1.41421 1 0 0 1 1.41421 1 1 1.41421 2.23607 3.16228 4.12311 5.09902 6.08276 7.07107 8.06226 7.61577 7.07107 6.40312 5.83095 5.38516 5.09902 5 5 5.09902 5.38516 5.83095 5.38516 4.47214 3.60555 2.82843 2.23607 2 2 2 2.23607 2.82843 3.60555 4.47214 5.38516 6.32456 7.28011 8.24621 9.21954 10.198 11 10 9 8 7 6 5 4 3 2 1 0
0 1 2 3 4 5 6 7 8 9 10 11 12 13 14 15 16 17 18 19 20 21 22 23 24 25 26 27 28 29 30 31 32 33 34 35 34.8855 34 33.121 32.249 31.3847 30.5287 29.6816 28.8444 28.0179 27.2029 26.4008 25.6125 24.8395 24.0832 23.3452 22.6274 21.9317 21.2603 20.5913 19.7231 18.868 18.0278 17.2047 16.4012 15.6205 14.8661 14.1421 13.4536 12.8062 12.0416 11.3137 10.6301 10 9.43398 8.94427 8.544 8.24621 8.06226 8 7.61577 6.7082 5.83095 5 4.24264 3.60555 3.16228 2.82843 2.23607 2 1.41421 1 1 1.41421 2.23607 3.16228 4.12311 5 4 3 2 1 0 0 1 2 3 4 5 5.09902 5.38516 5.83095 6.40312 7.07107 7.81025 7.81025 7.2111 6.7082 6.32456 6.08276 6 6 6.08276 6.32456 6.7082 7.07107 7.28011 7.28011 6.32456 5.38516 4.47214 3.60555 2.82843 2.23607 1.41421 1 0 0 0 1 2 2 1 0 1 0 0 1 2 1.41421 1 0 0 1 2 3 4 4.47214 5 5.65685 5 4 3 2 1 0 0 1 1 1 0 0 1 0 1 1.41421 2.23607 2 1 0 0 1 2 2.82843 3.60555 4.47214 5.38516 5.09902 5 5 5 5 5 5.09902 5.38516 4.47214 3.60555 2.82843 2.23607 1.41421 1 0 1 1.41421 2.23607 2.82843 2 1 0 1 1 0 0 0 1 1.41421 2.23607 2.82843 3.60555 4.47214 5.38516 5 4.24264 3.60555 2.82843 2.23607 2 1 0 1 0 0 1 2 3 4 4.12311 4.47214 5 5.65685 5 4 3 2 1 0 0 0 0 1 1 1.41421 2 2.23607 2.82843 3.60555 4 4.12311 4.47214 5 4.12311 3.16228 2.23607 1.41421 1 0 0 1 1 0 0 0 1 1 1 1.41421 2 2.23607 2.82843 3 3 3 2.82843 2.23607 1.41421 1 1 0 0 1 1 0 0 0 0 1 1 0 0 1 2 1.41421 1 0 1 1.41421 2.23607 3.16228 2.23607 1.41421 1 1 1 1.41421 2.23607 2.23607 1.41421 1 1 1 1 1 1.41421 2 2 1.41421 1 1 1.41421 2.23607 3.16228 4.12311 5.09902 5.38516 4.47214 3.60555 2.82843 2.23607 2 1.41421 1 1 1.41421 1 1 0 0 1 2 3 4 5 6 7 8 9 10 11 11 11.0454 11.1803 11.4018 11.7047 12.083 12.53 13.0384 13.6015 14.1421 14.0357 14 14 14.0357 14.1421 14.3178 14.5602 14.8661 15.2315 15.6525 16.1245 16.6433 17.2047 17.8045 18.4391 19.105 19.799 20.5183 21.2603 22.0227 22.8035 23.6008 24.4131 25.2389 26.0768 26.9258 27.7849 28.6007 29.4109 30.2324 31.0161 31 31 31.0161 31 31 30.6757 29.7321 28.7924 27.8568 26.9258 26 25.0799 24.1661 23.2594 22.3607 21.4709 20.5913 19.7231 18.868 18.0278 17.2047 16.4012 15.6205 14.8661 14.1421 13.4536 12.8062 12.2066 11.6619 11.1803 10.7703 10.4403 10.198 10.0499 10 10 10 10.0499 10.198 10.4403 10.7703 11.1803 11.6619 12.2066 12.8062 13.4536 14.1421 14.8661 15 14 13 12 11 10 9 8 7 6 5 4 3 2 1 0 0 0 1 1 0 0 1 2 3 4 5 6 7 7.2111 6.7082 6.32456 5.65685 5 4.47214 4.12311 4 4 4.12311 4.47214 5 5.65685 5 4.12311 3.16228 2.23607 1.41421 1 1 1.41421 2.23607 3.16228 4.12311 5.09902 6.08276 7.07107 8.06226 9.05539 10.0499 11 10 9 8 7 6 5 4 3 2 1 0
0 1 2 3 4 5 6 7 8 9 10 11 12 13 14 15 16 17 18 19 20 21 22 23 24 25 26 27 28 29 30 31 32 33 34 35 35.3553 34.4819 33.6155 32.7567 31.9061 31.0644 30.2324 29.4109 28.6007 27.8029 27.0185 26.2488 25.4951 24.7588 24.0416 23.3452 22.6716 21.9545 21.095 20.2485 19.4165 18.6011 17.8045 17.0294 16.2788 15.5563 14.8661 14.2127 13.4536 12.7279 12.0416 11.4018 10.8167 10.2956 9.84886 9.48683 9.21954 9.05539 8.94427 8.06226 7.2111 6.40312 5.65685 5 4.47214 4.12311 3.60555 3.16228 2.82843 2.23607 2 2 2.23607 2.82843 3.60555 4.47214 5 4 3 2 1 0 0 1 2 3 4 5 6 6.32456 6.7082 7.2111 7.81025 7.81025 7.07107 6.40312 5.83095 5.38516 5.09902 5 5 5.09902 5.38516 5.83095 6.08276 6.32456 6.7082 6.7082 5.83095 5 4.24264 3.60555 2.82843 2.23607 1.41421 1 1 1 1.41421 2 2 1 0 1 0 1 1.41421 2.23607 2.23607 1.41421 1 1 1.41421 2.23607 3.16228 4.12311 5.09902 5.83095 6.08276 5.09902 4.12311 3.16228 2.23607 1.41421 1 0 0 1 1.41421 1 1 1 0 0 1 2 2 1 0 0 1 1.41421 2.23607 3.16228 4.12311 4.47214 4.12311 4 4 4 4 4 4.12311 4.47214 5 4.24264 3.60555 2.82843 2 1 0 0 1 1.41421 2 2 1 0 1 1 0 0 0 0 1 1.41421 2.23607 3.16228 4.12311 5 5.65685 5 4.24264 3.60555 3 2 1 0 1 1 0 1 2 3 3 3.16228 3.60555 4.24264 5 5 4.12311 3.16228 2.23607 1.41421 1 0 0 0 0 0 1 1 1.41421 2.23607 2.82843 3.60555 4.24264 5 5.38516 4.47214 3.60555 2.82843 2 1 0 0 1 1.41421 1 0 0 0 0 0 1 1 1.41421 2 2 2 2 2 2.23607 2.23607 2 1 0 0 1 1.41421 1 0 0 0 1 1 0 0 1 2 2 1 0 0 1 2 2.82843 2.23607 2 2 2 2 2.23607 2.23607 1.41421 1 0 0 0 0 0 1 1 1 1 0 0 1 2 3 4 5 5.09902 4.12311 3.16228 2.23607 1.41421 1 1 0 0 1 0 0 0 0 1 2 3 4 5 6 7 8 9 10 11 12 12.0416 12.1655 12.3693 12.6491 13 13.4164 13.8924 14.4222 15 15.0333 15 15 15.0333 15.1327 15.2971 15.5242 15.8114 16.1555 16.5529 17 17.4929 18.0278 18.6011 19.2094 19.8494 20.5183 21.2132 21.9317 22.6716 23.4307 24.2074 25 25.807 26.6271 27.4591 28.3019 29.1548 30 30.0666 30.0167 30 30 30.0167 30 30 30 29.4109 28.4605 27.5136 26.5707 25.632 24.6982 23.7697 22.8473 21.9317 21.0238 20.1246 19.2354 18.3576 17.4929 16.6433 15.8114 15 14.2127 13.4536 12.7279 12.0416 11.4018 10.8167 10.2956 9.84886 9.48683 9.21954 9.05539 9 9 9 9.05539 9.21954 9.48683 9.84886 10.2956 10.8167 11.4018 12.0416 12.7279 13.4536 14.2127 15 14 13 12 11 10 9 8 7 6 5 4 3 2 1 0 0 1 1.41421 1 0 0 1 2 3 4 5 6 7 6.40312 5.83095 5.38516 5 4.24264 3.60555 3.16228 3 3 3.16228 3.60555 4.24264 5 4.47214 3.60555 2.82843 2 1 0 0 1 2 3 4 5 6 7 8 9 10 11 10 9 8 7 6 5 4 3 2 1 0
0 1 2 3 4 5 6 7 8 9 10 11 12 13 14 15 16 17 18 19 20 21 22 23 24 25 26 27 28 29 30 31 32 33 34 35 35.8469 34.9857 34.1321 33.2866 32.45 31.6228 30.8058 30 29.2062 28.4253 27.6586 26.9072 26.1725 25.4558 24.7588 24.0832 23.3238 22.4722 21.6333 20.8087 20 19.2094 18.4391 17.6918 16.9706 16.2788 15.6205 14.8661 14.1421 13.4536 12.8062 12.2066 11.6619 11.1803 10.7703 10.4403 10.198 10.0499 9.43398 8.60233 7.81025 7.07107 6.40312 5.83095 5.38516 5 4.47214 4.12311 3.60555 3.16228 3 3 3.16228 3.60555 4.24264 5 5.09902 4.12311 3.16228 2.23607 1.41421 1 1 1.41421 2.23607 3.16228 4.12311 5.09902 6.08276 7.07107 7.61577 8.06226 8.06226 7.2111 6.40312 5.65685 5 4.47214 4.12311 4 4 4.12311 4.47214 5 5.09902 5.38516 5.83095 6.32456 6.08276 5.09902 4.12311 3.16228 2.23607 1.41421 1 1 1.41421 1.41421 1 1 1.41421 1 0 0 0 0 1 2 2.82843 2.23607 2 2 2.23607 2.82843 3.60555 4.47214 5.38516 5.83095 5.83095 5 4.24264 3.60555 2.82843 2.23607 1.41421 1 0 0 1 1 1.41421 1.41421 1 0 1 1.41421 2 1 0 0 0 1 2 2.82843 3.60555 3.60555 3.16228 3 3 3 3 3 3.16228 3.60555 4.12311 4.47214 4.12311 3.16228 2.23607 1.41421 1 0 0 1 1 1.41421 1 0 0 1 1 0 1 0 0 1 2 2.82843 3.60555 4.47214 5.38516 5.65685 5 4 3 2 1 0 1 1 0 1 2 2 2 2.23607 2.82843 3.60555 4 4 4.12311 3.60555 2.82843 2.23607 1.41421 1 0 0 1 0 0 0 1 1.41421 2.23607 2.82843 3.60555 4.24264 5 5 4.12311 3.16228 2.23607 1.41421 1 0 0 1 1.41421 1 0 0 0 0 0 0 1 1 1 1 1 1 1.41421 2 2.23607 1.41421 1 1 1.41421 2.23607 1.41421 1 0 0 0 0 0 1 1.41421 2.23607 2.23607 1.41421 1 0 1 2 2.23607 1.41421 1 1 1.41421 2.23607 2.23607 1.41421 1 0 0 1 1 1 0 0 0 0 1 0 0 1 2 3 4 5 5 4 3 2 1 0 0 0 0 1 0 0 0 1 1.41421 2.23607 3.16228 4.12311 5.09902 6.08276 7.07107 8.06226 9.05539 10.0499 11.0454 12.0416 13.0384 13.1529 13.3417 13.6015 13.9284 14.3178 14.7648 15.2643 15.8114 16.0312 16 16 16.0312 16.1245 16.2788 16.4924 16.7631 17.088 17.4642 17.8885 18.3576 18.868 19.4165 20 20.6155 21.2603 21.9317 22.6274 23.3452 24.0832 24.8395 25.6125 26.4008 27.2029 28.0179 28.8444 29 29.0172 29.0689 29.0172 29 29 29.0172 29 29 29 29 28.1603 27.2029 26.2488 25.2982 24.3516 23.4094 22.4722 21.5407 20.6155 19.6977 18.7883 17.8885 17 16.1245 15.2643 14.4222 13.6015 12.8062 12.0416 11.3137 10.6301 10 9.43398 8.94427 8.544 8.24621 8.06226 8 8 8 8.06226 8.24621 8.544 8.94427 9.43398 10 10.6301 11.3137 12.0416 12.8062 13.6015 14.4222 14.0357 13.0384 12.0416 11.0454 10.0499 9.05539 8.06226 7.07107 6.08276 5.09902 4.12311 3.16228 2.23607 1.41421 1 1 1.41421 2.23607 1.41421 1 1 1.41421 2.23607 3.16228 4.12311 5.09902 6.08276 6.40312 5.65685 5 4.47214 4.12311 3.60555 2.82843 2.23607 2 2 2.23607 2.82843 3.60555 4.47214 4.12311 3.16228 2.23607 1.41421 1 0 0 1 2 3 4 5 6 7 8 9 10 11 10 9 8 7 6 5 4 3 2 1 0
0 1 2 3 4 5 6 7 8 9 10 11 12 13 14 15 16 17 18 19 20 21 22 23 24 25 26 27 28 29 30 31 32 33 34 35 36 35.5106 34.6699 33.8378 33.0151 32.2025 31.4006 30.6105 29.8329 29.0689 28.3196 27.5862 26.8701 26.1725 25.4951 24.6982 23.8537 23.0217 22.2036 21.4009 20.6155 19.8494 19.105 18.3848 17.6918 17.0294 16.2788 15.5563 14.8661 14.2127 13.6015 13.0384 12.53 12.083 11.7047 11.4018 11.1803 10.8167 10 9.21954 8.48528 7.81025 7.2111 6.7082 6.32456 5.83095 5.38516 5 4.47214 4.12311 4 4 4.12311 4.47214 5 5.65685 5.38516 4.47214 3.60555 2.82843 2.23607 2 2 2.23607 2.82843 3.60555 4.47214 5.38516 6.32456 7.28011 8.24621 8.544 7.61577 6.7082 5.83095 5 4.24264 3.60555 3.16228 3 3 3.16228 3.60555 4 4.12311 4.47214 5 5.38516 5.83095 5 4 3 2 1 0 0 1 1 0 0 1 1.41421 1 0 0 0 1 2 3 3.16228 3 3 3.16228 3.60555 4 4.12311 4.47214 5 5 4.47214 3.60555 2.82843 2.23607 2 2 1.41421 1 0 0 0 1 1.41421 1 0 0 1 2 1.41421 1 0 0 1 1.41421 2.23607 3.16228 2.82843 2.23607 2 2 2 2 2 2.23607 2.82843 3.16228 3.60555 4.24264 3.60555 2.82843 2.23607 1.41421 1 0 0 0 1 1 0 0 1 0 0 1 1 0 1 1.41421 2.23607 3.16228 4.12311 5.09902 6 5 4 3 2 1 0 1 1 0 1 1.41421 1 1 1.41421 2.23607 3 3 3 3.16228 3.60555 3.60555 2.82843 2.23607 1.41421 1 0 0 0 1 0 0 1 1.41421 2.23607 2.82843 3.60555 4.24264 5 4.47214 3.60555 2.82843 2.23607 1.41421 1 0 0 1 1 1 0 0 0 0 0 0 0 0 0 0 0 1 1 1.41421 2.23607 2 2 2.23607 2.82843 2 1 0 1 1 0 0 1 2 2.82843 2 1 0 0 1 2 2 1 0 0 1 1.41421 1.41421 1 0 0 0 0 0 0 1 0 0 0 1 1 1 1.41421 2.23607 3.16228 4.12311 5.09902 5 4 3 2 1 0 0 1 1 1 1 1 1 1.41421 2.23607 2.82843 3.60555 4.47214 5.38516 6.32456 7.28011 8.24621 9.21954 10.198 11.1803 12.1655 13.1529 14.1421 14.3178 14.5602 14.8661 15.2315 15.6525 16.1245 16.6433 17.0294 17 17 17.0294 17.1172 17.2627 17.4642 17.72 18.0278 18.3848 18.7883 19.2354 19.7231 20.2485 20.8087 21.4009 22.0227 22.6716 23.3452 24.0416 24.7588 25.4951 26.2488 27.0185 27.8029 28 28 28 28.0179 28.0713 28.0179 28 28 28.0179 28 28 28 28 27.8927 26.9258 25.9615 25 24.0416 23.0868 22.1359 21.1896 20.2485 19.3132 18.3848 17.4642 16.5529 15.6525 14.7648 13.8924 13.0384 12.2066 11.4018 10.6301 9.8995 9.21954 8.60233 8.06226 7.61577 7.28011 7.07107 7 7 7 7.07107 7.28011 7.61577 8.06226 8.60233 9.21954 9.8995 10.6301 11.4018 12.2066 13.0384 13.8924 14.1421 13.1529 12.1655 11.1803 10.198 9.21954 8.24621 7.28011 6.32456 5.38516 4.47214 3.60555 2.82843 2.23607 2 2 2.23607 2.82843 2.23607 2 2 2.23607 2.82843 3.60555 4.47214 5.38516 6.32456 5.83095 5 4.24264 3.60555 3.16228 3 2.23607 1.41421 1 1 1.41421 2.23607 3.16228 4.12311 4 3 2 1 0 0 1 1.41421 2.23607 3.16228 4.12311 5.09902 6.08276 7.07107 8.06226 9.05539 10.0499 11 10 9 8 7 6 5 4 3 2 1 0
0 1 2 3 4 5 6 7 8 9 10 11 12 13 14 15 16 17 18 19 20 21 22 23 24 25 26 27 28 29 30 31 32 33 34 35 36 36.0555 35.2278 34.4093 33.6006 32.8024 32.0156 31.241 30.4795 29.7321 29 28.2843 27.5862 26.9072 26.0768 25.2389 24.4131 23.6008 22.8035 22.0227 21.2603 20.5183 19.799 19.105 18.4391 17.6918 16.9706 16.2788 15.6205 15 14.4222 13.8924 13.4164 13 12.6491 12.3693 12.1655 11.4018 10.6301 9.8995 9.21954 8.60233 8.06226 7.61577 7.2111 6.7082 6.32456 5.83095 5.38516 5.09902 5 5 5.09902 5.38516 5.83095 6.40312 5.83095 5 4.24264 3.60555 3.16228 3 3 3.16228 3.60555 4.24264 5 5.83095 6.7082 7.61577 8.544 8.24621 7.28011 6.32456 5.38516 4.47214 3.60555 2.82843 2.23607 2 2 2.23607 2.82843 3 3.16228 3.60555 4.12311 4.47214 5 5 4 3 2 1 0 0 0 1 0 0 0 1 1.41421 1 0 0 1 2 3 4 3.60555 3.16228 3 3 3 3.16228 3.60555 4.12311 4 4 3.16228 2.23607 1.41421 1 1 1 1.41421 1 1 0 0 1 1 1 0 1 2 2 1 0 0 0 1 2 2.82843 2.23607 1.41421 1 1 1 1 1 1.41421 2 2.23607 2.82843 3.60555 4.24264 3.60555 2.82843 2.23607 1.41421 1 1 0 0 0 0 1 1 0 0 0 1 0 0 1 2 3 4 5 6 5 4 3 2 1 0 1 1 0 1 1 0 0 1 2 2 2 2 2.23607 2.82843 3.60555 3.60555 2.82843 2.23607 1.41421 1 1 0 0 0 0 0 1 1.41421 2.23607 2.82843 3.60555 4.24264 5 4.24264 3.60555 2.82843 2.23607 1.41421 1 0 0 0 0 0 0 1 0 0 1 1 1 1 1 0 0 0 1 1.41421 2.23607 2.82843 3.16228 3 2 1 0 0 1 1 1 1.41421 2.23607 2.82843 2 1 0 1 1.41421 2.23607 2 1 0 0 0 1 1 0 0 1 0 0 0 0 1 0 0 0 1 2 2 2.23607 2.82843 3.60555 4.47214 5.38516 5.09902 4.12311 3.16228 2.23607 1.41421 1 1 1 0 0 1 2 2 2.23607 2.82843 3.60555 4.24264 5 5.83095 6.7082 7.61577 8.544 9.48683 10.4403 11.4018 12.3693 13.3417 14.3178 15.2971 15.5242 15.8114 16.1555 16.5529 17 17.4929 18.0278 18 18 18.0278 18.1108 18.2483 18.4391 18.6815 18.9737 19.3132 19.6977 20.1246 20.5913 21.095 21.6333 22.2036 22.8035 23.4307 24.0832 24.7588 25.4558 26.1725 26.9072 27 27 27 27 27 27.0185 27.074 27.0185 27 27 27.0185 27 27 27 27 27 26.6833 25.7099 24.7386 23.7697 22.8035 21.8403 20.8806 19.9249 18.9737 18.0278 17.088 16.1555 15.2315 14.3178 13.4164 12.53 11.6619 10.8167 10 9.21954 8.48528 7.81025 7.2111 6.7082 6.32456 6.08276 6 6 6 6.08276 6.32456 6.7082 7.2111 7.81025 8.48528 9.21954 10 10.8167 11.6619 12.53 13.4164 13.6015 12.8062 12.0416 11.3137 10.4403 9.48683 8.544 7.61577 6.7082 5.83095 5 4.24264 3.60555 3.16228 3 3 3.16228 3.60555 3.16228 3 3 3.16228 3.60555 4.24264 5 5.83095 6.32456 5.38516 4.47214 3.60555 2.82843 2.23607 2 2 1 0 0 1 2 3 4 4 3 2 1 0 0 1 2 2.82843 3.60555 4.47214 5.38516 6.32456 7.28011 8.24621 9.21954 10.198 11 10 9 8 7 6 5 4 3 2 1 0
0 1 2 3 4 5 6 7 8 9 10 11 12 13 14 15 16 17 18 19 20 21 22 23 24 25 26 27 28 29 30 31 32 33 34 35 36 36.6197 35.805 35 34.2053 33.4216 32.6497 31.8904 31.1448 30.4138 29.6985 29 28.3019 27.4591 26.6271 25.807 25 24.2074 23.4307 22.6716 21.9317 21.2132 20.5183 19.8494 19.105 18.3848 17.6918 17.0294 16.4012 15.8114 15.2643 14.7648 14.3178 13.9284 13.6015 13.3417 12.8062 12.0416 11.3137 10.6301 10 9.43398 8.94427 8.544 8.06226 7.61577 7.2111 6.7082 6.32456 6.08276 6 6 6.08276 6.32456 6.7082 7.2111 6.40312 5.65685 5 4.47214 4.12311 4 4 4.12311 4.47214 5 5.65685 6.40312 7.2111 8.06226 8.94427 8.06226 7.07107 6.08276 5.09902 4.12311 3.16228 2.23607 1.41421 1 1 1.41421 2 2 2.23607 2.82843 3.16228 3.60555 4.24264 5 4 3 2 1 0 0 0 1 0 0 0 0 1 1.41421 1 1 1.41421 2.23607 3.16228 3.60555 2.82843 2.23607 2 2 2 2.23607 2.82843 3.16228 3 3 3 2 1 0 0 0 1 2 1.41421 1 0 0 0 0 0 1 2 2.23607 1.41421 1 0 0 1 1.41421 2.23607 1.41421 1 0 0 0 0 0 1 1 1.41421 2.23607 2.82843 3.60555 4.24264 3.60555 2.82843 2.23607 2 1.41421 1 0 0 1 1.41421 1.41421 1 1 0 0 1 0 1 2 3 4 5 5.09902 5 4 3 2 1 0 1 1 0 1 1 0 0 1 1.41421 1 1 1 1.41421 2.23607 2.82843 3.16228 3 2.82843 2.23607 2 1.41421 1 1 1 0 0 0 1 1.41421 2.23607 2.82843 3.60555 4.47214 5 4.24264 3.60555 2.82843 2.23607 1.41421 1 1 0 0 0 0 1 1 0 0 1 1 1.41421 1.41421 1 1 0 0 1 1.41421 2.23607 2.82843 3.16228 2.23607 1.41421 1 0 1 1.41421 1 1 1.41421 2.23607 2 1 0 0 1 2 2.23607 1.41421 1 0 0 0 1 0 0 1 0 0 1 1 1 0 0 0 1 2 2.82843 3.16228 3.60555 4.24264 5 5.83095 5.38516 4.47214 3.60555 2.82843 2.23607 2 2 1 0 0 1 2 3 3.16228 3.60555 4.24264 5 5.65685 6.40312 7.2111 8.06226 8.94427 9.84886 10.7703 11.7047 12.6491 13.6015 14.5602 15.5242 16.4924 16.7631 17.088 17.4642 17.8885 18.3576 18.868 19 19 19.0263 19.105 19.2354 19.4165 19.6469 19.9249 20.2485 20.6155 21.0238 21.4709 21.9545 22.4722 23.0217 23.6008 24.2074 24.8395 25.318 25.4951 25.7099 25.9615 26 26 26 26 26 26.0192 26.0768 26.0192 26 26 26.0192 26 26 26 26 26 26 25.4951 24.5153 23.5372 22.561 21.587 20.6155 19.6469 18.6815 17.72 16.7631 15.8114 14.8661 13.9284 13 12.083 11.1803 10.2956 9.43398 8.60233 7.81025 7.07107 6.40312 5.83095 5.38516 5.09902 5 5 5 5.09902 5.38516 5.83095 6.40312 7.07107 7.81025 8.60233 9.43398 10.2956 11.1803 12.083 13 13.0384 12.2066 11.4018 10.6301 9.8995 9.21954 8.60233 7.81025 7.07107 6.40312 5.65685 5 4.47214 4.12311 4 4 4.12311 4.47214 4.12311 4 4 4.12311 4.47214 5 5.65685 6.40312 6.08276 5.09902 4.12311 3.16228 2.23607 1.41421 1 1 1 0 0 1 2 3 4 4.12311 3.16228 2.23607 1.41421 1 1 1.41421 2.23607 3.16228 4.12311 5 5.83095 6.7082 7.61577 8.544 9.48683 10.4403 11 10 9 8 7 6 5 4 3 2 1 0
0 1 2 3 4 5 6 7 8 9 10 11 12 13 14 15 16 17 18 19 20 21 22 23 24 25 26 27 28 29 30 31 32 33 34 35 36 37 36.4006 35.609 34.8281 34.0588 33.3017 32.5576 31.8277 31.1127 30.4138 29.6816 28.8444 28.0179 27.2029 26.4008 25.6125 24.8395 24.0832 23.3452 22.6274 21.9317 21.2603 20.5183 19.799 19.105 18.4391 17.8045 17.2047 16.6433 16.1245 15.6525 15.2315 14.8661 14.5602 14.2127 13.4536 12.7279 12.0416 11.4018 10.8167 10.2956 9.84886 9.43398 8.94427 8.544 8.06226 7.61577 7.28011 7.07107 7 7 7.07107 7.28011 7.61577 7.81025 7.07107 6.40312 5.83095 5.38516 5.09902 5 5 5.09902 5.38516 5.83095 6.40312 7.07107 7.81025 8.60233 9 8 7 6 5 4 3 2 1 0 0 1 1 1 1.41421 2 2.23607 2.82843 3.60555 4.24264 4 3 2 1 0 0 0 0 1 0 0 0 1 2 2 2 2.23607 2.82843 3.60555 3.16228 2.23607 1.41421 1 1 1 1.41421 2.23607 2.23607 2 2 2.23607 2 1 0 1 0 1 2 2.23607 1.41421 1 1 1 1 1 1.41421 2.23607 2.82843 2 1 0 0 0 1 1.41421 1 0 0 1 1 1 0 0 0 1 1.41421 2.23607 2.82843 3.60555 4.24264 3.60555 3.16228 2.82843 2.23607 1.41421 1 1 1.41421 1 1 1.41421 1.41421 1 0 0 0 1 2 3 4 4.47214 4.12311 4 4 3 2 1 0 0 0 0 1 1.41421 1 1 1.41421 1 0 0 0 1 1.41421 2.23607 2.23607 2 2 2.23607 2 1 0 0 1 1 0 0 0 1 1.41421 2.23607 3.16228 4.12311 4 4 4.12311 3.60555 2.82843 2.23607 2 1.41421 1 1 1 1 1.41421 1.41421 1 0 0 0 1 1 1.41421 1.41421 1 0 0 1 1.41421 2.23607 2.82843 2.82843 2 1 0 0 1 0 0 1 2 2.23607 1.41421 1 0 1 1.41421 2.23607 2.23607 1.41421 1 0 0 1 0 1 1 0 0 1 2 1.41421 1 1 0 1 1.41421 2.23607 3.16228 4.12311 5 5.65685 6.40312 5.83095 5 4.24264 3.60555 3.16228 3 2.23607 1.41421 1 1 1.41421 2.23607 3.16228 4.12311 4.47214 5 5.65685 6.40312 7.07107 7.81025 8.60233 9.43398 10.2956 11.1803 12.083 13 13.9284 14.8661 15.8114 16.7631 17.72 18.0278 18.3848 18.7883 19.2354 19.7231 20 20 20.025 20.0998 20.2237 20.3961 20.6155 20.8806 21.1896 21.5407 21.9317 22.3607 22.8254 23.3238 23.8537 24.0208 24.0832 24.1868 24.3311 24.5153 24.7386 25 25 25 25 25 25 25.02 25.0799 25.02 25 25 25.02 25 25 25 25 25 25 25 24.3311 23.3452 22.3607 21.3776 20.3961 19.4165 18.4391 17.4642 16.4924 15.5242 14.5602 13.6015 12.6491 11.7047 10.7703 9.84886 8.94427 8.06226 7.2111 6.40312 5.65685 5 4.47214 4.12311 4 4 4 4.12311 4.47214 5 5.65685 6.40312 7.2111 8.06226 8.94427 9.84886 10.7703 11.7047 12.6491 12.53 11.6619 10.8167 10 9.21954 8.48528 7.81025 7.2111 6.40312 5.65685 5 4.47214 4.12311 4 4 4.12311 4.47214 5 5.09902 5 5 5.09902 5.38516 5.83095 6.40312 7 6 5 4 3 2 1 0 0 1 0 0 1 2 3 4 4.47214 3.60555 2.82843 2.23607 2 2 2.23607 2.82843 3.60555 4.47214 5.38516 6.32456 7.2111 8.06226 8.94427 9.84886 10.7703 11 10 9 8 7 6 5 4 3 2 1 0
0 1 2 3 4 5 6 7 8 9 10 11 12 13 14 15 16 17 18 19 20 21 22 23 24 25 26 27 28 29 30 31 32 33 34 35 36 37 37.0135 36.2353 35.4683 34.7131 33.9706 33.2415 32.5269 31.8277 31.0644 30.2324 29.4109 28.6007 27.8029 27.0185 26.2488 25.4951 24.7588 24.0416 23.3452 22.6716 21.9317 21.2132 20.5183 19.8494 19.2094 18.6011 18.0278 17.4929 17 16.5529 16.1555 15.8114 15.5242 14.8661 14.1421 13.4536 12.8062 12.2066 11.6619 11.1803 10.7703 10.2956 9.84886 9.43398 8.94427 8.544 8.24621 8.06226 8 8 8.06226 8.24621 8.544 8.48528 7.81025 7.2111 6.7082 6.32456 6.08276 6 6 6.08276 6.32456 6.7082 7.2111 7.81025 8.48528 9.21954 9 8 7 6 5 4 3 2 1 0 0 0 0 0 1 1 1.41421 2.23607 2.82843 3.60555 3.16228 3 2 1 0 1 1 0 1 1 1 1 1.41421 2.23607 3 3 3.16228 3.60555 4 3 2 1 0 0 0 1 1.41421 1.41421 1 1 1.41421 2 1 0 0 0 1 2 2.82843 2.23607 2 2 2 2 2 2.23607 2.82843 3.16228 2.23607 1.41421 1 0 0 1 1 0 0 1 1.41421 2 1.41421 1 1 0 0 1 1.41421 2.23607 3.16228 4.12311 4.47214 4.12311 3.60555 2.82843 2.23607 2 1.41421 1 0 0 1 2 1.41421 1 1 1 1.41421 2.23607 3.16228 4.12311 3.60555 3.16228 3 3 3 2.23607 1.41421 1 0 0 1 1.41421 2.23607 2 2 2 1 0 1 0 0 1 1.41421 1.41421 1 1 1.41421 2 1 0 0 1 1 1 0 0 0 1 2 2.82843 3.16228 3 3 3.16228 3.60555 3.60555 3.16228 2.82843 2.23607 2 2 2 2 2.23607 2.23607 1.41421 1 1 0 0 0 1 1 1.41421 1 0 0 1 1.41421 2.23607 2.82843 2.23607 1.41421 1 0 0 0 0 1 2 1.41421 1 1 0 0 1 2 2.82843 2 1 0 0 0 0 1 1.41421 1 1 1.41421 2 1 0 0 0 0 1 2 3 4 5 6 6 6 5.65685 5 4.47214 4.12311 3.60555 2.82843 2.23607 2 2 2.23607 2.82843 3.60555 4.47214 5.38516 5.83095 6.40312 7.07107 7.81025 8.48528 9.21954 10 10.8167 11.6619 12.53 13.4164 14.3178 15.2315 16.1555 17.088 18.0278 18.9737 19.3132 19.6977 20.1246 20.5913 21 21 21.0238 21.095 21.2132 21.3776 21.587 21.8403 22.1359 22.4722 22.8473 23 23 23 23 23.0217 23.0868 23.1948 23.3452 23.5372 23.7697 24 24 24 24 24 24 24.0208 24.0832 24.0208 24 24 24.0208 24 24 24 24 24 24 24 24.0208 23.1948 22.2036 21.2132 20.2237 19.2354 18.2483 17.2627 16.2788 15.2971 14.3178 13.3417 12.3693 11.4018 10.4403 9.48683 8.544 7.61577 6.7082 5.83095 5 4.24264 3.60555 3.16228 3 3 3 3.16228 3.60555 4.24264 5 5.83095 6.7082 7.61577 8.544 9.48683 10.4403 11.4018 12.3693 12.083 11.1803 10.2956 9.43398 8.60233 7.81025 7.07107 6.40312 5.83095 5 4.24264 3.60555 3.16228 3 3 3.16228 3.60555 4.24264 5 5.83095 6 6.08276 6.32456 6.7082 7.2111 7 6 5 4 3 2 1 0 0 1 1 1 1.41421 2.23607 3.16228 4.12311 5 4.24264 3.60555 3.16228 3 3 3.16228 3.60555 4.24264 5 5.83095 6.7082 7.61577 8.544 9.43398 10.2956 11.1803 11 10 9 8 7 6 5 4 3 2 1 0
0 1 2 3 4 5 6 7 8 9 10 11 12 13 14 15 16 17 18 19 20 21 22 23 24 25 26 27 28 29 30 31 32 33 34 35 36 37 37.6431 36.8782 36.1248 35.3836 34.6554 33.9411 33.2415 32.45 31.6228 30.8058 30 29.2062 28.4253 27.6586 26.9072 26.1725 25.4558 24.7588 24.0832 23.3452 22.6274 21.9317 21.2603 20.6155 20 19.4165 18.868 18.3576 17.8885 17.4642 17.088 16.7631 16.2788 15.5563 14.8661 14.2127 13.6015 13.0384 12.53 12.083 11.6619 11.1803 10.7703 10.2956 9.84886 9.48683 9.21954 9.05539 9 9 9.05539 9.21954 9.48683 9.21954 8.60233 8.06226 7.61577 7.28011 7.07107 7 7 7.07107 7.28011 7.61577 8.06226 8.60233 9.21954 9.8995 9.05539 8.06226 7.07107 6.08276 5.09902 4.12311 3.16228 2.23607 1.41421 1 1 0 0 0 0 0 1 1.41421 2.23607 2.82843 2.23607 2 2 1 0 0 1 0 1 1 1 1.41421 2 2.23607 2.82843 3.60555 4.12311 4.47214 4 3 2 1 0 0 0 0 1 1 0 0 1 2 1.41421 1 1 1 1.41421 2.23607 3.16228 3.16228 3 3 3 3 3 3.16228 3.60555 3.60555 2.82843 2.23607 1.41421 1 1 1.41421 1 0 1 1 1.41421 2 2.23607 2 1.41421 1 0 0 1 2 3 4 5 5 4.24264 3.60555 3 2 1 0 0 0 1 2 2.23607 2 2 2 2.23607 2.82843 3.60555 3.60555 2.82843 2.23607 2 2 2 2.23607 2.23607 1.41421 1 1 1.41421 2.23607 2.82843 3 3 2 1 0 1 1 0 0 1 1 0 0 1 2 1 0 0 0 0 0 0 0 0 1 1.41421 2.23607 2.23607 2 2 2.23607 2.82843 3 3 3 2.23607 1.41421 1 1 1.41421 2.23607 2.23607 2 2 1.41421 1 1 0 0 0 1 1 1 0 0 1 1.41421 2.23607 2.82843 2 1 0 0 1 1 1.41421 2 1 0 0 0 0 1 2 3 2 1 0 0 0 1 1.41421 1.41421 1 1 1 1 1 0 0 0 0 1 2 3 4 5 5 5 5 5 5.09902 5.38516 5 4.24264 3.60555 3.16228 3 3 3.16228 3.60555 4.24264 5 5.65685 6.40312 7.2111 7.81025 8.48528 9.21954 9.8995 10.6301 11.4018 12.2066 13.0384 13.8924 14.7648 15.6525 16.5529 17.4642 18.3848 19.3132 20 20 20 20 20 20 20.025 20.0998 20.2237 20.3961 20.6155 20.8806 21.1896 21.5407 21.9317 22 22 22 22 22.0227 22.0907 22.2036 22.3607 22.561 22.8035 23 23 23 23 23 23 23.0217 23.0868 23.0217 23 23 23.0217 23 23 23 23 23 23 23 23.0217 23.0868 22.0907 21.095 20.0998 19.105 18.1108 17.1172 16.1245 15.1327 14.1421 13.1529 12.1655 11.1803 10.198 9.21954 8.24621 7.28011 6.32456 5.38516 4.47214 3.60555 2.82843 2.23607 2 2 2 2.23607 2.82843 3.60555 4.47214 5.38516 6.32456 7.28011 8.24621 9.21954 10.198 11.1803 12.1655 11.7047 10.7703 9.84886 8.94427 8.06226 7.2111 6.40312 5.65685 5 4.47214 3.60555 2.82843 2.23607 2 2 2.23607 2.82843 3.60555 4.47214 5.38516 6.32456 7.07107 7.28011 7.61577 8.06226 7.07107 6.08276 5.09902 4.12311 3.16228 2.23607 1.41421 1 1 1.41421 2 2 2.23607 2.82843 3.60555 4.47214 5.38516 5 4.47214 4.12311 4 4 4.12311 4.47214 5 5.65685 6.40312 7.2111 8.06226 8.94427 9.84886 10.7703 11.6619 11 10 9 8 7 6 5 4 3 2 1 0
0 1 2 3 4 5 6 7 8 9 10 11 12 13 14 15 16 17 18 19 20 21 22 23 24 25 26 27 28 29 30 31 32 33 34 35 36 37 38 37.5366 36.7967 36.0694 35.3553 34.6554 33.8378 33.0151 32.2025 31.4006 30.6105 29.8329 29.0689 28.3196 27.5862 26.8701 26.1725 25.4951 24.7588 24.0416 23.3452 22.6716 22.0227 21.4009 20.8087 20.2485 19.7231 19.2354 18.7883 18.3848 18.0278 17.6918 16.9706 16.2788 15.6205 15 14.4222 13.8924 13.4164 13 12.53 12.083 11.6619 11.1803 10.7703 10.4403 10.198 10.0499 10 10 10.0499 10.198 10.4403 10 9.43398 8.94427 8.544 8.24621 8.06226 8 8 8.06226 8.24621 8.544 8.94427 9.43398 10 10.198 9.21954 8.24621 7.28011 6.32456 5.38516 4.47214 3.60555 2.82843 2.23607 2 1.41421 1 1 0 0 0 0 1 1.41421 2.23607 1.41421 1 1 1.41421 1 0 0 0 1 0 0 1 1 1.41421 2.23607 3.16228 4.12311 5.09902 4.12311 3.16228 2.23607 1.41421 1 0 1 0 1 1 0 0 1 2 2.23607 2 2 2 2.23607 2.82843 3.60555 4.12311 4 4 4 4 4 4.12311 4.47214 4.24264 3.60555 2.82843 2.23607 2 2 2 1 0 0 0 1 1 1.41421 2 2 1.41421 1 0 1 2 3 4 5 5.65685 5 4 3 2 1 0 1 0 1 2 3 3 3 3 3.16228 3.60555 3.60555 2.82843 2.23607 1.41421 1 1 1 1.41421 2.23607 2.23607 2 2 2.23607 2.82843 3.60555 4 3 2 1 0 1 1.41421 1 0 0 1 0 0 1 2 1 0 0 0 0 0 0 0 0 0 1 2 1.41421 1 1 1.41421 2.23607 2 2 2 2 1 0 0 1 1.41421 1.41421 1 1 1.41421 2 1.41421 1 0 0 0 0 1 1 0 0 1 2 3 2.23607 1.41421 1 0 0 1 2 2 1 0 0 1 1 1.41421 2.23607 3.16228 2.23607 1.41421 1 0 1 1.41421 2 1 0 0 0 0 0 0 1 0 0 1 2 3 4 4.12311 4 4 4 4 4.12311 4.47214 5 5 4.24264 3.60555 3.16228 3 3 3.16228 3.60555 4.24264 5 5.83095 6.7082 7.61577 8.544 9.48683 10.4403 11.3137 12.0416 12.8062 13.6015 14.4222 15.2643 16.1245 17 17.8885 18.7883 19 19 19 19 19 19 19 19.0263 19.105 19.2354 19.4165 19.6469 19.9249 20.2485 20.6155 21.0238 21 21 21 21 21.0238 21.095 21.2132 21.3776 21.587 21.8403 22 22 22 22 22 22 22.0227 22.0907 22.0227 22 22 22.0227 22 22 22 22 22 22 22 22.0227 22.0907 22.0227 21.0238 20.025 19.0263 18.0278 17.0294 16.0312 15.0333 14.0357 13.0384 12.0416 11.0454 10.0499 9.05539 8.06226 7.07107 6.08276 5.09902 4.12311 3.16228 2.23607 1.41421 1 1 1 1.41421 2.23607 3.16228 4.12311 5.09902 6.08276 7.07107 8.06226 9.05539 10.0499 11.0454 12.0416 11.4018 10.4403 9.48683 8.544 7.61577 6.7082 5.83095 5 4.24264 3.60555 3.16228 2.23607 1.41421 1 1 1.41421 2.23607 3.16228 4.12311 5.09902 6.08276 7.07107 8.06226 8.544 8.24621 7.28011 6.32456 5.38516 4.47214 3.60555 2.82843 2.23607 2 2 2.23607 2.82843 3 3.16228 3.60555 4.24264 5 5.83095 5.83095 5.38516 5.09902 5 5 5.09902 5.38516 5.83095 6.40312 7.07107 7.81025 8.60233 9.43398 10.2956 11.1803 12 11 10 9 8 7 6 5 4 3 2 1 0
0 1 2 3 4 5 6 7 8 9 10 11 12 13 14 15 16 17 18 19 20 21 22 23 24 25 26 27 28 29 30 31 32 33 34 35 36 37 38 38.2099 37.4833 36.7696 36.0555 35.2278 34.4093 33.6006 32.8024 32.0156 31.241 30.4795 29.7321 29 28.2843 27.5862 26.9072 26.1725 25.4558 24.7588 24.0832 23.4307 22.8035 22.2036 21.6333 21.095 20.5913 20.1246 19.6977 19.3132 18.9737 18.3848 17.6918 17.0294 16.4012 15.8114 15.2643 14.7648 14.3178 13.8924 13.4164 13 12.53 12.083 11.7047 11.4018 11.1803 11.0454 11 11 11.0454 11.1803 11.4018 10.8167 10.2956 9.84886 9.48683 9.21954 9.05539 9 9 9.05539 9.21954 9.48683 9.84886 10.2956 10.8167 10.4403 9.48683 8.544 7.61577 6.7082 5.83095 5 4.24264 3.60555 3.16228 2.82843 2.23607 2 1.41421 1 0 0 0 0 1 1.41421 1 0 0 1 1.41421 1 1 1 1 0 0 0 0 1 2 3 4 5 4.47214 3.60555 2.82843 2 1 0 1 0 0 1 1 1 1.41421 2.23607 3.16228 3 3 3 3.16228 3.60555 4.24264 5 5 5 5 5 5 5.09902 5.38516 5 4.24264 3.60555 3.16228 3 3 2.23607 1.41421 1 1 0 0 0 1 1 1 1 1 0 1 2 3 4 5 6 5 4 3 2 1 0 0 0 1 2 3 3.60555 4 4 4.12311 3.60555 2.82843 2.23607 1.41421 1 0 0 0 1 2 3 3 3 3.16228 3.60555 4.24264 4 3 2 1 0 1 2 1.41421 1 0 0 0 1 1.41421 1.41421 1 0 0 0 0 0 0 1 1 0 1 1.41421 1 0 0 1 1.41421 1 1 1 1 1 0 0 0 1 1 0 0 1 1.41421 2.23607 1.41421 1 1 0 0 0 0 1 0 1 2 2.82843 2.82843 2.23607 1.41421 1 0 1 1 1 1.41421 1 0 1 2 2.23607 2.82843 3 2 1 0 0 1 2 2 1 0 0 0 0 0 0 1 1 1 1.41421 2.23607 3.16228 3.60555 3.16228 3 3 3 3 3.16228 3.60555 4 4 3.60555 2.82843 2.23607 2 2 2.23607 2.82843 3.60555 4.47214 5.38516 6.32456 7.28011 8.24621 9.21954 10.198 11.1803 12.1655 13.1529 14.1421 15 15.8114 16.6433 17.4929 18 18 18 18 18 18 18 18 18 18.0278 18.1108 18.2483 18.4391 18.6815 18.9737 19.3132 19.6977 20.025 20 20 20 20 20.025 20.0998 20.2237 20.3961 20.6155 20.8806 21 21 21 21 21 21 21.0238 21.095 21.0238 21 21 21.0238 21 21 21 21 21 21 21 21.0238 21.095 21.2132 21 20 19 18 17 16 15 14 13 12 11 10 9 8 7 6 5 4 3 2 1 0 0 0 1 2 3 4 5 6 7 8 9 10 11 12 11.1803 10.198 9.21954 8.24621 7.28011 6.32456 5.38516 4.47214 3.60555 2.82843 2.23607 2 1 0 0 1 2 3 4 5 6 7 8 9 8.544 7.61577 6.7082 5.83095 5 4.24264 3.60555 3.16228 3 3 3.16228 3.60555 4 4.12311 4.47214 5 5.65685 6.40312 6.7082 6.32456 6.08276 6 6 6.08276 6.32456 6.7082 7.2111 7.81025 8.48528 9.21954 10 10.8167 11.6619 12 11 10 9 8 7 6 5 4 3 2 1 0
