0 1 2 3 4 5 6 7 8 9 10 11 12 13 14 15 16 17 18 19 20 21 22 23 24 25 26 27 28 29 30 31 32 33 34 35 36 37 38 39 40 41 42 43 44 45 46 47 48 47.3814 46.3897 45.3982 44.4072 43.4166 42.4264 41.4367 40.4475 39.4588 38.4708 37.4833 36.4966 35.5106 34.5254 33.541 32.5576 31.5753 30.5941 29.6142 28.6356 27.6586 26.6833 25.7099 24.7386 23.7697 22.8035 21.8403 20.8806 19.9249 18.9737 18.0278 17.088 16.1245 15.1327 14.1421 13.1529 12.1655 11.1803 10.198 9.21954 8.24621 7.28011 6.32456 5.38516 4.47214 3.60555 2.82843 2 1 0 1 1 0 1 2 3 4 5 4.24264 3.60555 3.16228 3 3 3.16228 3.60555 4.24264 5 5.83095 6.7082 7.61577 8.544 9.48683 9.21954 9.05539 9 9 9 9 9.05539 9.21954 9.48683 9.84886 10.2956 10.8167 11.4018 12.0416 12.7279 13.4536 14.1421 14.8661 15.5563 16.2788 17.0294 17.8045 18.6011 19.4165 20.2485 21.095 21.9545 22.8254 23.4094 23.0868 22.8035 22.561 22.3607 22.2036 22.0907 22.0227 21.8403 21.587 21.3776 21.2132 21.095 21.0238 21 21 20.8806 20.6155 20.3961 20.2237 20.0998 20.025 20 20 20.025 20.0998 20.2237 20.3961 20.6155 20.8806 21.1896 21.5407 21.9317 22.3607 22.8035 23.0868 23.4094 23.7697 24.1661 24.5967 25.0599 25.5539 26.0768 26.6271 27.2029 27.8029 28.4253 29.0689 29.7321 30.4138 31.1127 31.8277 32.5576 33.3017 34.0588 34.7131 35.3836 36.0694 36.7696 37.4833 38.2099 38.8973 39.598 40.3113 41.0366 41.7732 42.5206 42.9535 43.1741 42.9535 42.5441 42.1545 41.7852 41.4367 41.1096 40.8044 40.4969 40.1622 39.8497 39.5601 39.2938 39.0512 38.833 38.6394 38.4708 38.3275 38.2099 38.1182 38.0526 37.9473 37.6431 37.3363 37 36.6879 36.4006 36.0555 35.7351 35.4401 35.1141 34.7851 34.4819 34.2053 33.9559 33.7343 33.541 33.3766 33.2415 33.1361 33.0606 33.0151 33 33 33 33 33 33 33 33 33 33.0151 33.0606 33.1361 33.2415 33.3766 33.541 33.7343 33.9559 34 34 34 33.9559 33.7343 33.541 33.3766 33.2415 33.1361 33.0606 32.3883 31.4006 30.4138 29.4279 28.4429 27.4591 26.4764 25.4951 24.5153 23.5372 22.561 21.587 20.6155 19.6469 18.6815 17.72 16.7631 15.8114 14.8661 13.9284 13 12.0416 11.0454 10.0499 9.05539 8.06226 7.07107 6.08276 5.09902 4.12311 3.16228 2.23607 1.41421 1 1 1 0 0 0 0 0 0 0 1 2 3 4 5 6 7 8 9 10 11 12 12.6491 11.7047 10.7703 9.84886 8.94427 8.06226 7.2111 6.32456 5.38516 4.47214 3.60555 2.82843 2.23607 1.41421 1 0 1 2 2.82843 3.60555 4.47214 5.38516 6.32456 7.2111 8.06226 8.94427 9.84886 10.7703 11.7047 12.6491 13.6015 14.5602 15.5242 16.4924 17.4642 18.3576 19.2354 20.1246 21.0238 21.9317 22.8035 23.6008 24.4131 25.2389 26.0768 26.9258 27.7849 28.6531 29.5296 30.4138 31.305 32.2025 33.1059 34.0147 34.9285 35.8469 36.7696 37.6962 38.6264 39.5601 40.4969 41.4367 42.3792 43.3244 44.2719 45.1885 46.0977 47.0106 47.8853 48.7647 49.6488 50.2494 49.3964 48.5489 47.7074 46.8722 46.0435 45.2217 44.4072 43.6005 42.8019 42.0119 41.2311 40.4599 39.6989 38.9487 38.2099 37.4833 36.7696 36.0694 35.3553 34.6554 33.9411 33.2415 32.5576 31.8904 31.241 30.6105 30 29.4109 28.8444 28.3019 27.7849 27.2947 26.8328 26.4008 26 25.632 25.2982 25 24.7386 24.5153 24.3311 24.1868 24.0832 24.0208 24 24 24 24.0208 24.0832 24.1868 24.3311 24.5153 24.7386 25 25.2982 25.632 26 26.4008 26.8328 27.2947 27.7849 28.3019 28.8444 29.4109 30 30.6105 31.241 31.8904 31 30 29 28 27 26 25 24 23 22 21 20 19 18 17 16 15 14 13 12 11 10 9 8 7 6 5 4 3 2 1 0
0 1 2 3 4 5 6 7 8 9 10 11 12 13 14 15 16 17 18 19 20 21 22 23 24 25 26 27 28 29 30 31 32 33 34 35 36 37 38 39 40 41 42 43 44 45 46 47 48 47.5184 46.5296 45.5412 44.5533 43.566 42.5793 41.5933 40.6079 39.6232 38.6394 37.6563 36.6742 35.6931 34.7131 33.7343 32.7567 31.7805 30.8058 29.8329 28.8617 27.8927 26.9258 25.9615 25 24.0416 23.0868 22.1359 21.1896 20.2237 19.2354 18.2483 17.2627 16.2788 15.2971 14.3178 13.3417 12.3693 11.4018 10.4403 9.48683 8.544 7.61577 6.7082 5.83095 5 4 3 2 1 0 1 1 0 1 2 2.82843 3.60555 4.47214 3.60555 2.82843 2.23607 2 2 2.23607 2.82843 3.60555 4.47214 5.38516 6.32456 7.28011 8.24621 8.544 8.24621 8.06226 8 8 8 8 8.06226 8.24621 8.544 8.94427 9.43398 10 10.6301 11.3137 12.0416 12.7279 13.4536 14.1421 14.8661 15.6205 16.4012 17.2047 18.0278 18.868 19.7231 20.5913 21.4709 22.3607 23.2594 24.0416 23.7697 23.5372 23.3452 23.1948 23.0868 23.0217 22.8035 22.561 22.3607 22.2036 22.0907 22.0227 22 22 21.8403 21.587 21.3776 21.2132 21.095 21.0238 21 21 21.0238 21.095 21.2132 21.3776 21.587 21.8403 22.1359 22.4722 22.8473 23.2594 23.7065 24.0416 24.3516 24.6982 25.0799 25.4951 25.9422 26.4197 26.9258 27.4591 28.0179 28.6007 29.2062 29.8329 30.4795 31.1448 31.8277 32.5269 33.2415 33.9706 34.7131 35.4683 36.1248 36.7967 37.4833 38.1838 38.8973 39.6232 40.3113 41.0122 41.7253 42.45 42.72 42.45 42.2019 41.9762 41.6293 41.2311 40.8534 40.4969 40.1622 39.8497 39.5601 39.2173 38.8973 38.6005 38.3275 38.0789 37.855 37.6563 37.4833 37.3363 37.2156 37.1214 37.054 37 36.6879 36.4006 36.0555 35.7351 35.4401 35.1141 34.7851 34.4819 34.176 33.8378 33.5261 33.2415 32.9848 32.7567 32.5576 32.3883 32.249 32.1403 32.0624 32.0156 32 32 32 32 32 32 32 32 32 32.0156 32.0624 32.1403 32.249 32.3883 32.5576 32.7567 32.9848 33 33 33 32.9848 32.7567 32.5576 32.3883 32.249 32.1403 32.0624 32.0156 31.257 30.2655 29.2746 28.2843 27.2947 26.3059 25.318 24.3311 23.3452 22.3607 21.3776 20.3961 19.4165 18.4391 17.4642 16.4924 15.5242 14.5602 13.6015 12.6491 11.7047 10.7703 9.84886 8.94427 8 7 6 5 4 3 2 1 0 0 1 0 0 1 0 0 0 0 1 2 3 4 5 6 7 8 9 10 11 12 12.2066 11.4018 10.4403 9.48683 8.544 7.61577 6.7082 5.83095 5 4.12311 3.16228 2.23607 1.41421 1 0 0 1 2 3 4 5 5.83095 6.7082 7.61577 8.544 9.43398 10.2956 11.1803 12.083 13 13.9284 14.8661 15.8114 16.7631 17.72 18.6815 19.6469 20.5913 21.4709 22.3607 23.2594 24.1661 25 25.807 26.6271 27.4591 28.3019 29.1548 30.0167 30.8869 31.7648 32.6497 33.541 34.4384 35.3412 36.2491 37.1618 38.0789 39 39.9249 40.8534 41.7852 42.72 43.6578 44.5982 45.5412 46.4866 47.4236 48.3322 49.2443 50.1199 50.774 49.93 49.0918 48.2597 47.4342 46.6154 45.8039 45 44.2041 43.4166 42.638 41.8688 41.1096 40.3609 39.6232 38.8973 38.1838 37.4833 36.7696 36.0694 35.3553 34.6554 33.9706 33.3017 32.6497 32.0156 31.4006 30.8058 30.2324 29.6816 29.1548 28.6531 28.178 27.7308 27.313 26.9258 26.5707 26.2488 25.9615 25.7099 25.4951 25.318 25.1794 25.0799 25.02 25 25 25 25.02 25.0799 25.1794 25.318 25.4951 25.7099 25.9615 26.2488 26.5707 26.9258 27.313 27.7308 28.178 28.6531 29.1548 29.6816 30.2324 30.8058 31.4006 32.0156 32 31 30 29 28 27 26 25 24 23 22 21 20 19 18 17 16 15 14 13 12 11 10 9 8 7 6 5 4 3 2 1 0
0 1 2 3 4 5 6 7 8 9 10 11 12 13 14 15 16 17 18 19 20 21 22 23 24 25 26 27 28 29 30 31 32 33 34 35 36 37 38 39 40 41 42 43 44 45 46 47 48 47.676 46.6905 45.7056 44.7214 43.7379 42.7551 41.7732 40.7922 39.8121 38.833 37.855 36.8782 35.9026 34.9285 33.9559 32.9848 32.0156 31.0483 30.0832 29.1204 28.1603 27.2029 26.2488 25.2982 24.3311 23.3452 22.3607 21.3776 20.3961 19.4165 18.4391 17.4642 16.4924 15.5242 14.5602 13.6015 12.6491 11.7047 10.7703 9.84886 8.94427 8 7 6 5 4 3 2 1 0 1 1 0 1 1.41421 2.23607 3.16228 4.12311 3.16228 2.23607 1.41421 1 1 1.41421 2.23607 3.16228 4.12311 5.09902 6.08276 7.07107 8.06226 7.61577 7.28011 7.07107 7 7 7 7 7.07107 7.28011 7.61577 8.06226 8.60233 9.21954 9.8995 10.6301 11.3137 12.0416 12.7279 13.4536 14.2127 15 15.8114 16.6433 17.4929 18.3576 19.2354 20.1246 21.0238 21.9317 22.8473 23.7697 24.6982 24.5153 24.3311 24.1868 24.0832 24.0208 23.7697 23.5372 23.3452 23.1948 23.0868 23.0217 23 23 22.8035 22.561 22.3607 22.2036 22.0907 22.0227 22 22 22.0227 22.0907 22.2036 22.3607 22.561 22.8035 23.0868 23.4094 23.7697 24.1661 24.5967 25 25.2982 25.632 26 26.4008 26.8328 27.2947 27.7849 28.3019 28.8444 29.4109 30 30.6105 31.241 31.8904 32.5576 33.2415 33.9411 34.6554 35.3836 36.1248 36.8782 37.5366 38.2099 38.8973 39.598 40.3113 41.0366 41.7253 42.3792 42.0595 41.7612 41.4849 41.2311 41 40.7185 40.3113 39.9249 39.5601 39.2173 38.8973 38.6005 38.2753 37.9473 37.6431 37.3631 37.108 36.8782 36.6742 36.4966 36.3456 36.2215 36.1248 36.0555 36.0139 35.7351 35.4401 35.1141 34.7851 34.4819 34.176 33.8378 33.5261 33.2415 32.8938 32.573 32.28 32.0156 31.7805 31.5753 31.4006 31.257 31.1448 31.0644 31.0161 31 31 31 31 31 31 31 31 31 31.0161 31.0644 31.1448 31.257 31.4006 31.5753 31.7805 32 32 32 32 32 31.7805 31.5753 31.4006 31.257 31.1448 31.0644 31.0161 31 30.1496 29.1548 28.1603 27.1662 26.1725 25.1794 24.1868 23.1948 22.2036 21.2132 20.2237 19.2354 18.2483 17.2627 16.2788 15.2971 14.3178 13.3417 12.3693 11.4018 10.4403 9.48683 8.544 7.61577 6.7082 5.83095 5 4 3 2 1 0 0 0 0 0 1 1 0 0 0 1 2 3 4 5 6 7 8 9 10 11 12 11.6619 10.8167 10 9.21954 8.24621 7.28011 6.32456 5.38516 4.47214 3.60555 2.82843 2 1 0 0 1 1.41421 2.23607 3.16228 4.12311 5.09902 6.08276 7.07107 8.06226 8.94427 9.84886 10.7703 11.6619 12.53 13.4164 14.3178 15.2315 16.1555 17.088 18.0278 18.9737 19.9249 20.8806 21.8403 22.8035 23.7065 24.5967 25.4951 26.4008 27.2029 28.0179 28.8444 29.6816 30.5287 31.3847 32.249 33.121 34 34.8855 35.7771 36.6742 37.5766 38.4838 39.3954 40.3113 41.2311 42.1545 43.0813 44.0114 44.9444 45.8803 46.8188 47.7598 48.7032 49.6488 50.5668 51.3128 50.4777 49.6488 48.8262 48.0104 47.2017 46.4004 45.607 44.8219 44.0454 43.2782 42.5206 41.7732 41.0366 40.3113 39.598 38.8973 38.1838 37.4833 36.7696 36.0694 35.3836 34.7131 34.0588 33.4216 32.8024 32.2025 31.6228 31.0644 30.5287 30.0167 29.5296 29.0689 28.6356 28.2312 27.8568 27.5136 27.2029 26.9258 26.6833 26.4764 26.3059 26.1725 26.0768 26.0192 26 26 26 26.0192 26.0768 26.1725 26.3059 26.4764 26.6833 26.9258 27.2029 27.5136 27.8568 28.2312 28.6356 29.0689 29.5296 30.0167 30.5287 31.0644 31.6228 32.2025 32.8024 32 31 30 29 28 27 26 25 24 23 22 21 20 19 18 17 16 15 14 13 12 11 10 9 8 7 6 5 4 3 2 1 0
0 1 2 3 4 5 6 7 8 9 10 11 12 13 14 15 16 17 18 19 20 21 22 23 24 25 26 27 28 29 30 31 32 33 34 35 36 37 38 39 40 41 42 43 44 45 46 47 48 47.8539 46.8722 45.8912 44.911 43.9318 42.9535 41.9762 41 40.025 39.0512 38.0789 37.108 36.1386 35.171 34.2053 33.2415 32.28 31.3209 30.3645 29.4109 28.4429 27.4591 26.4764 25.4951 24.5153 23.5372 22.561 21.587 20.6155 19.6469 18.6815 17.72 16.7631 15.8114 14.8661 13.9284 13 12 11 10 9 8 7 6 5 4 3 2 1 0 1 1 0 0 1 2 3 3.60555 2.82843 2 1 0 0 1 2 3 4 5 6 7 7.2111 6.7082 6.32456 6.08276 6 6 6 6 6.08276 6.32456 6.7082 7.2111 7.81025 8.48528 9.21954 9.8995 10.6301 11.3137 12.0416 12.8062 13.6015 14.4222 15.2643 16.1245 17 17.8885 18.7883 19.6977 20.6155 21.5407 22.4722 23.4094 24.3516 25.2982 25.318 25.1794 25.0799 25 24.7386 24.5153 24.3311 24.1868 24.0832 24.0208 24 24 23.7697 23.5372 23.3452 23.1948 23.0868 23.0217 23 23 23.0217 23.0868 23.1948 23.3452 23.5372 23.7697 24.0416 24.3516 24.6982 25.0799 25.4951 25.9422 26.2488 26.5707 26.9258 27.313 27.7308 28.178 28.6531 29.1548 29.6816 30.2324 30.8058 31.4006 32.0156 32.6497 33.3017 33.9706 34.6554 35.3553 36.0694 36.7967 37.5366 38.2884 38.9487 39.6232 40.3113 41.0122 41.7253 41.7852 41.4367 41.1096 40.8044 40.5216 40.2616 40.025 39.8121 39.3954 39 38.6264 38.2753 37.9473 37.6431 37.3363 37 36.6879 36.4006 36.1386 35.9026 35.6931 35.5106 35.3553 35.2278 35.1283 35.0571 35.0143 34.7851 34.4819 34.176 33.8378 33.5261 33.2415 32.8938 32.573 32.28 31.9531 31.6228 31.3209 31.0483 30.8058 30.5941 30.4138 30.2655 30.1496 30.0666 30.0167 30 30 30 30 30 30 30 30 30 30.0167 30.0666 30.1496 30.2655 30.4138 30.5941 30.8058 31 31 31 31 31 30.8058 30.5941 30.4138 30.2655 30.1496 30.0666 30.0167 30 30 29.0689 28.0713 27.074 26.0768 25.0799 24.0832 23.0868 22.0907 21.095 20.0998 19.105 18.1108 17.1172 16.1245 15.1327 14.1421 13.1529 12.1655 11.1803 10.198 9.21954 8.24621 7.28011 6.32456 5.38516 4.47214 3.60555 2.82843 2 1 0 0 0 1 0 0 1 0 0 1 1.41421 2.23607 3.16228 4.12311 5.09902 6.08276 7.07107 8.06226 9.05539 10.0499 11.0454 12.0416 11.1803 10.2956 9.43398 8.60233 7.81025 7.07107 6.08276 5.09902 4.12311 3.16228 2.23607 1.41421 1 0 1 1.41421 2.23607 2.82843 3.60555 4.47214 5.38516 6.32456 7.28011 8.24621 9.21954 10.198 11.1803 12.083 13 13.8924 14.7648 15.6525 16.5529 17.4642 18.3848 19.3132 20.2485 21.1896 22.1359 23.0868 24.0416 25 25.9422 26.8328 27.7308 28.6007 29.4109 30.2324 31.0644 31.9061 32.7567 33.6155 34.4819 35.3553 36.2353 37.1214 38.0132 38.9102 39.8121 40.7185 41.6293 42.5441 43.4626 44.3847 45.31 46.2385 47.1699 48.1041 49.0408 49.98 50.9215 51.8652 51.0392 50.2195 49.4065 48.6004 47.8017 47.0106 46.2277 45.4533 44.6878 43.9318 43.1856 42.45 41.7253 41.0122 40.3113 39.598 38.8973 38.1838 37.4833 36.7967 36.1248 35.4683 34.8281 34.2053 33.6006 33.0151 32.45 31.9061 31.3847 30.8869 30.4138 29.9666 29.5466 29.1548 28.7924 28.4605 28.1603 27.8927 27.6586 27.4591 27.2947 27.1662 27.074 27.0185 27 27 27 27.0185 27.074 27.1662 27.2947 27.4591 27.6586 27.8927 28.1603 28.4605 28.7924 29.1548 29.5466 29.9666 30.4138 30.8869 31.3847 31.9061 32.45 33.0151 33 32 31 30 29 28 27 26 25 24 23 22 21 20 19 18 17 16 15 14 13 12 11 10 9 8 7 6 5 4 3 2 1 0
0 1 2 3 4 5 6 7 8 9 10 11 12 13 14 15 16 17 18 19 20 21 22 23 24 25 26 27 28 29 30 31 32 33 34 35 36 37 38 39 40 41 42 43 44 45 46 47 48 48.0521 47.0744 46.0977 45.1221 44.1475 43.1741 42.2019 41.2311 40.2616 39.2938 38.3275 37.3631 36.4006 35.4401 34.4819 33.5261 32.5576 31.5753 30.5941 29.6142 28.6356 27.6586 26.6833 25.7099 24.7386 23.7697 22.8035 21.8403 20.8806 19.9249 18.9737 18 17 16 15 14 13 12 11 10 9 8 7 6 5 4 3 2 1 0 0 1 1 0 1 2 2.82843 3.16228 2.23607 1.41421 1 0 0 1 2 3 4 5 6 7 6.40312 5.83095 5.38516 5.09902 5 5 5 5 5.09902 5.38516 5.83095 6.40312 7.07107 7.81025 8.48528 9.21954 9.8995 10.6301 11.4018 12.2066 13.0384 13.8924 14.7648 15.6525 16.5529 17.4642 18.3848 19.3132 20.2485 21.1896 22.1359 23.0868 24.0416 25 25.9615 26.1725 26.0768 25.9615 25.7099 25.4951 25.318 25.1794 25.0799 25.02 25 25 24.7386 24.5153 24.3311 24.1868 24.0832 24.0208 24 24 24.0208 24.0832 24.1868 24.3311 24.5153 24.7386 25 25.2982 25.632 26 26.4008 26.8328 27.2029 27.5136 27.8568 28.2312 28.6356 29.0689 29.5296 30.0167 30.5287 31.0644 31.6228 32.2025 32.8024 33.4216 34.0588 34.7131 35.3836 36.0694 36.7696 37.4833 38.2099 38.9487 39.6989 40.3609 41.0122 41.0488 41.1096 40.8534 40.4969 40.1622 39.8497 39.5601 39.2938 39.0512 38.833 38.4838 38.0789 37.6962 37.3363 37 36.6879 36.4006 36.0555 35.7351 35.4401 35.171 34.9285 34.7131 34.5254 34.3657 34.2345 34.1321 34.0588 34.0147 33.8378 33.5261 33.2415 32.8938 32.573 32.28 31.9531 31.6228 31.3209 31.0161 30.6757 30.3645 30.0832 29.8329 29.6142 29.4279 29.2746 29.1548 29.0689 29.0172 29 29 29 29 29 29 29 29 29 29.0172 29.0689 29.1548 29.2746 29.4279 29.6142 29.8329 30 30 30 30 30 29.8329 29.6142 29.4279 29.2746 29.1548 29.0689 29.0172 29 29 29 28.0179 27.0185 26.0192 25.02 24.0208 23.0217 22.0227 21.0238 20.025 19.0263 18.0278 17.0294 16.0312 15.0333 14.0357 13.0384 12.0416 11.0454 10.0499 9.05539 8.06226 7.07107 6.08276 5.09902 4.12311 3.16228 2.23607 1.41421 1 0 0 0 0 0 0 0 0 0 0 1 2 3 4 5 6 7 8 9 10 11 11.7047 10.7703 9.84886 8.94427 8.06226 7.2111 6.40312 5.65685 5 4 3 2 1 0 0 1 2 2.82843 3.60555 4.24264 5 5.83095 6.7082 7.61577 8.544 9.48683 10.4403 11.4018 12.3693 13.3417 14.3178 15.2315 16.1245 17 17.8885 18.7883 19.6977 20.6155 21.5407 22.4722 23.4094 24.3516 25.2982 26.2488 27.2029 28.1603 29.0689 29.9666 30.8058 31.6228 32.45 33.2866 34.1321 34.9857 35.8469 36.7151 37.5899 38.4708 39.3573 40.2492 41.1461 42.0476 42.9535 43.8634 44.7772 45.6946 46.6154 47.5395 48.4665 49.3964 50.3289 51.264 52.2015 51.614 50.8035 50 49.2037 48.4149 47.634 46.8615 46.0977 45.3431 44.5982 43.8634 43.1393 42.4264 41.7253 41.0122 40.3113 39.598 38.8973 38.2099 37.5366 36.8782 36.2353 35.609 35 34.4093 33.8378 33.2866 32.7567 32.249 31.7648 31.305 30.8707 30.4631 30.0832 29.7321 29.4109 29.1204 28.8617 28.6356 28.4429 28.2843 28.1603 28.0713 28.0179 28 28 28 28.0179 28.0713 28.1603 28.2843 28.4429 28.6356 28.8617 29.1204 29.4109 29.7321 30.0832 30.4631 30.8707 31.305 31.7648 32.249 32.7567 33.2866 33.8378 33 32 31 30 29 28 27 26 25 24 23 22 21 20 19 18 17 16 15 14 13 12 11 10 9 8 7 6 5 4 3 2 1 0
0 1 2 3 4 5 6 7 8 9 10 11 12 13 14 15 16 17 18 19 20 21 22 23 24 25 26 27 28 29 30 31 32 33 34 35 36 37 38 39 40 41 42 43 44 45 46 47 48 48.2701 47.2969 46.3249 45.3542 44.3847 43.4166 42.45 41.4849 40.5216 39.5601 38.6005 37.6431 36.6742 35.6931 34.7131 33.7343 32.7567 31.7805 30.8058 29.8329 28.8617 27.8927 26.9258 25.9615 25 24.0208 23.0217 22.0227 21.0238 20.025 19.0263 18.0278 17.0294 16.0312 15.0333 14.0357 13.0384 12.0416 11.0454 10.0499 9.05539 8.06226 7.07107 6.08276 5.09902 4.12311 3.16228 2.23607 1.41421 1 0 1 1 0 1 1.41421 2.23607 3 2 1 0 0 0 1 2 3 4 5 6 6.08276 5.65685 5 4.47214 4.12311 4 4 4 4 4.12311 4.47214 5 5.65685 6.40312 7.07107 7.81025 8.48528 9.21954 10 10.8167 11.6619 12.53 13.4164 14.3178 15.2315 16.1555 17.088 18.0278 18.9737 19.9249 20.8806 21.8403 22.8035 23.7697 24.7386 25.7099 26.6833 27.074 26.9258 26.6833 26.4764 26.3059 26.1725 26.0768 26.0192 26 25.9615 25.7099 25.4951 25.318 25.1794 25.0799 25.02 25 25 25.02 25.0799 25.1794 25.318 25.4951 25.7099 25.9615 26.2488 26.5707 26.9258 27.313 27.7308 28.1603 28.4605 28.7924 29.1548 29.5466 29.9666 30.4138 30.8869 31.3847 31.9061 32.45 33.0151 33.6006 34.2053 34.8281 35.4683 36.1248 36.7967 37.4833 38.1838 38.8973 39.6232 40 40 40.0125 40.05 40.1123 39.9249 39.5601 39.2173 38.8973 38.6005 38.3275 38.0789 37.855 37.5766 37.1618 36.7696 36.4006 36.0555 35.7351 35.4401 35.1141 34.7851 34.4819 34.2053 33.9559 33.7343 33.541 33.3766 33.2415 33.1361 33.0606 33.0151 32.8938 32.573 32.28 31.9531 31.6228 31.3209 31.0161 30.6757 30.3645 30.0832 29.7321 29.4109 29.1204 28.8617 28.6356 28.4429 28.2843 28.1603 28.0713 28.0179 28 28 28 28 28 28 28 28 28 28.0179 28.0713 28.1603 28.2843 28.4429 28.6356 28.8617 29 29 29 29 29 28.8617 28.6356 28.4429 28.2843 28.1603 28.0713 28.0179 28 28 28 27.8927 27 26 25 24 23 22 21 20 19 18 17 16 15 14 13 12 11 10 9 8 7 6 5 4 3 2 1 0 0 0 0 0 1 0 0 0 1 0 1 2 3 4 5 6 7 8 9 10 11 11.4018 10.4403 9.48683 8.544 7.61577 6.7082 5.83095 5 4.24264 3.60555 2.82843 2 1 0 1 1.41421 2.23607 3.16228 4.12311 5 5.65685 6.40312 7.2111 8.06226 8.94427 9.84886 10.7703 11.7047 12.6491 13.6015 14.5602 15.5242 16.4924 17.4642 18.3576 19.2354 20.1246 21.0238 21.9317 22.8473 23.7697 24.6982 25.632 26.5707 27.5136 28.4605 29.4109 30.3645 31.305 32.2025 33.0151 33.8378 34.6699 35.5106 36.3593 37.2156 38.0789 38.9487 39.8246 40.7063 41.5933 42.4853 43.382 44.2832 45.1885 46.0977 47.0106 47.927 48.8467 49.7695 50.6952 51.6236 52.5547 52.2015 51.4004 50.6063 49.8197 49.0408 48.2701 47.5079 46.7547 46.0109 45.2769 44.5533 43.8406 43.1393 42.4264 41.7253 41.0122 40.3113 39.6232 38.9487 38.2884 37.6431 37.0135 36.4006 35.805 35.2278 34.6699 34.1321 33.6155 33.121 32.6497 32.2025 31.7805 31.3847 31.0161 30.6757 30.3645 30.0832 29.8329 29.6142 29.4279 29.2746 29.1548 29.0689 29.0172 29 29 29 29.0172 29.0689 29.1548 29.2746 29.4279 29.6142 29.8329 30.0832 30.3645 30.6757 31.0161 31.3847 31.7805 32.2025 32.6497 33.121 33.6155 34.1321 34 33 32 31 30 29 28 27 26 25 24 23 22 21 20 19 18 17 16 15 14 13 12 11 10 9 8 7 6 5 4 3 2 1 0
0 1 2 3 4 5 6 7 8 9 10 11 12 13 14 15 16 17 18 19 20 21 22 23 24 25 26 27 28 29 30 31 32 33 34 35 36 37 38 39 40 41 42 43 44 45 46 47 48 48.5077 47.5395 46.5725 45.607 44.643 43.6807 42.72 41.7612 40.7922 39.8121 38.833 37.855 36.8782 35.9026 34.9285 33.9559 32.9848 32.0156 31.0483 30.0666 29.0689 28.0713 27.074 26.0768 25.0799 24.0832 23.0868 22.0907 21.095 20.0998 19.105 18.1108 17.1172 16.1245 15.1327 14.1421 13.1529 12.1655 11.1803 10.198 9.21954 8.24621 7.28011 6.32456 5.38516 4.47214 3.60555 2.82843 2 1 0 1 1 0 0 1 2 3 2 1 0 1 0 1 2 3 4 5 5.38516 5.09902 5 4.24264 3.60555 3.16228 3 3 3 3 3.16228 3.60555 4.24264 5 5.65685 6.40312 7.07107 7.81025 8.60233 9.43398 10.2956 11.1803 12.083 13 13.9284 14.8661 15.8114 16.7631 17.72 18.6815 19.6469 20.6155 21.587 22.561 23.5372 24.5153 25.4951 26.4764 27.4591 27.8927 27.6586 27.4591 27.2947 27.1662 27.074 27.0185 27 26.9258 26.6833 26.4764 26.3059 26.1725 26.0768 26.0192 26 26 26.0192 26.0768 26.1725 26.3059 26.4764 26.6833 26.9258 27.2029 27.5136 27.8568 28.2312 28.6356 29.0689 29.4109 29.7321 30.0832 30.4631 30.8707 31.305 31.7648 32.249 32.7567 33.2866 33.8378 34.4093 35 35.609 36.2353 36.8782 37.5366 38.2099 38.8973 39 39 39 39 39.0128 39.0512 39.1152 39 38.6264 38.2753 37.9473 37.6431 37.3631 37.108 36.8782 36.6742 36.2491 35.8469 35.4683 35.1141 34.7851 34.4819 34.176 33.8378 33.5261 33.2415 32.9848 32.7567 32.5576 32.3883 32.249 32.1403 32.0624 32.0156 31.9531 31.6228 31.3209 31.0161 30.6757 30.3645 30.0832 29.7321 29.4109 29.1204 28.7924 28.4605 28.1603 27.8927 27.6586 27.4591 27.2947 27.1662 27.074 27.0185 27 27 27 27 27 27 27 27 27 27.0185 27.074 27.1662 27.2947 27.4591 27.6586 27.8927 28 28 28 28 28 27.8927 27.6586 27.4591 27.2947 27.1662 27.074 27.0185 27 27 27 26.9258 26.6833 26 25 24 23 22 21 20 19 18 17 16 15 14 13 12 11 10 9 8 7 6 5 4 3 2 1 0 0 0 1 1 1 0 0 0 1 0 1 2 3 4 5 6 7 8 9 10 11 11.1803 10.198 9.21954 8.24621 7.28011 6.32456 5.38516 4.47214 3.60555 2.82843 2.23607 1.41421 1 0 1 2 2.82843 3.60555 4.47214 5.38516 6.32456 7.07107 7.81025 8.60233 9.43398 10.2956 11.1803 12.083 13 13.9284 14.8661 15.8114 16.7631 17.72 18.6815 19.6469 20.5913 21.4709 22.3607 23.2594 24.1661 25.0799 26 26.9258 27.8568 28.7924 29.7321 30.6757 31.6228 32.573 33.5261 34.4093 35.2278 36.0555 36.8917 37.7359 38.5876 39.4462 40.3113 41.1825 42.0595 42.9418 43.8292 44.7214 45.618 46.5188 47.4236 48.3322 49.2443 50.1597 51.0784 52 52.9245 52.8015 52.0096 51.225 50.448 49.679 48.9183 48.1664 47.4236 46.6905 45.9674 45.2548 44.5533 43.8406 43.1393 42.4264 41.7253 41.0366 40.3609 39.6989 39.0512 38.4187 37.8021 37.2022 36.6197 36.0555 35.5106 34.9857 34.4819 34 33.541 33.1059 32.6956 32.311 31.9531 31.6228 31.3209 31.0483 30.8058 30.5941 30.4138 30.2655 30.1496 30.0666 30.0167 30 30 30 30.0167 30.0666 30.1496 30.2655 30.4138 30.5941 30.8058 31.0483 31.3209 31.6228 31.9531 32.311 32.6956 33.1059 33.541 34 34.4819 34.9857 34 33 32 31 30 29 28 27 26 25 24 23 22 21 20 19 18 17 16 15 14 13 12 11 10 9 8 7 6 5 4 3 2 1 0
0 1 2 3 4 5 6 7 8 9 10 11 12 13 14 15 16 17 18 19 20 21 22 23 24 25 26 27 28 29 30 31 32 33 34 35 36 37 38 39 40 41 42 43 44 45 46 47 48 48.7647 47.8017 46.8402 45.8803 44.911 43.9318 42.9535 41.9762 41 40.025 39.0512 38.0789 37.108 36.1248 35.1283 34.1321 33.1361 32.1403 31.1448 30.1496 29.1548 28.1603 27.1662 26.1725 25.1794 24.1868 23.1948 22.2036 21.2132 20.2237 19.2354 18.2483 17.2627 16.2788 15.2971 14.3178 13.3417 12.3693 11.4018 10.4403 9.48683 8.544 7.61577 6.7082 5.83095 5 4 3 2 1 0 1 1.41421 1 0 1 2 2.82843 2 1 0 0 0 1 2 3 4 5 4.47214 4.12311 4 3.60555 2.82843 2.23607 2 2 2 2 2.23607 2.82843 3.60555 4.24264 5 5.65685 6.40312 7.2111 8.06226 8.94427 9.84886 10.7703 11.7047 12.6491 13.6015 14.5602 15.5242 16.4924 17.4642 18.4391 19.4165 20.3961 21.3776 22.3607 23.3452 24.3311 25.318 26.3059 27.2947 28.2843 28.6356 28.4429 28.2843 28.1603 28.0713 28.0179 28 27.8927 27.6586 27.4591 27.2947 27.1662 27.074 27.0185 27 27 27.0185 27.074 27.1662 27.2947 27.4591 27.6586 27.8927 28.1603 28.4605 28.7924 29.1548 29.5466 29.9666 30.3645 30.6757 31.0161 31.3847 31.7805 32.2025 32.6497 33.121 33.6155 34.1321 34.6699 35.2278 35.805 36.4006 36.8782 37.108 37.3631 37.6431 37.9473 38 38 38 38 38.0132 38.0526 38.1182 38.0789 37.6962 37.3363 37 36.6879 36.4006 36.1386 35.9026 35.6931 35.3412 34.9285 34.5398 34.176 33.8378 33.5261 33.2415 32.8938 32.573 32.28 32.0156 31.7805 31.5753 31.4006 31.257 31.1448 31.0644 31.0161 31 30.6757 30.3645 30.0832 29.7321 29.4109 29.1204 28.7924 28.4605 28.1603 27.8568 27.5136 27.2029 26.9258 26.6833 26.4764 26.3059 26.1725 26.0768 26.0192 26 26 26 26 26 26 26 26 26 26.0192 26.0768 26.1725 26.3059 26.4764 26.6833 26.9258 27 27 27 27 27 26.9258 26.6833 26.4764 26.3059 26.1725 26.0768 26.0192 26 26 26 25.9615 25.7099 25.4951 25 24 23 22 21 20 19 18 17 16 15 14 13 12 11 10 9 8 7 6 5 4 3 2 1 0 0 0 0 0 0 1 1 1 1 0 1 2 3 4 5 6 7 8 9 10 11 11.0454 10.0499 9.05539 8.06226 7.07107 6.08276 5.09902 4.12311 3.16228 2.23607 1.41421 1 0 0 1 2 3 4 5 5.83095 6.7082 7.61577 8.48528 9.21954 10 10.8167 11.6619 12.53 13.4164 14.3178 15.2315 16.1555 17.088 18.0278 18.9737 19.9249 20.8806 21.8403 22.8035 23.7065 24.5967 25.4951 26.4008 27.313 28.2312 29.1548 30.0832 31.0161 31.9531 32.8938 33.8378 34.7851 35.7351 36.6197 37.4433 38.2753 39.1152 39.9625 40.8167 41.6773 42.5441 43.4166 44.2945 45.1774 46.0652 46.9574 47.8539 48.7545 49.6588 50.5668 51.4781 52.3927 53.3104 53.4135 52.6308 51.8556 51.0882 50.3289 49.5782 48.8365 48.1041 47.3814 46.669 45.9674 45.2548 44.5533 43.8406 43.1393 42.45 41.7732 41.1096 40.4599 39.8246 39.2046 38.6005 38.0132 37.4433 36.8917 36.3593 35.8469 35.3553 34.8855 34.4384 34.0147 33.6155 33.2415 32.8938 32.573 32.28 32.0156 31.7805 31.5753 31.4006 31.257 31.1448 31.0644 31.0161 31 31 31 31.0161 31.0644 31.1448 31.257 31.4006 31.5753 31.7805 32.0156 32.28 32.573 32.8938 33.2415 33.6155 34.0147 34.4384 34.8855 35.3553 35 34 33 32 31 30 29 28 27 26 25 24 23 22 21 20 19 18 17 16 15 14 13 12 11 10 9 8 7 6 5 4 3 2 1 0
0 1 2 3 4 5 6 7 8 9 10 11 12 13 14 15 16 17 18 19 20 21 22 23 24 25 26 27 28 29 30 31 32 33 34 35 36 37 38 39 40 41 42 43 44 45 46 47 48 49 48.0521 47.0744 46.0977 45.1221 44.1475 43.1741 42.19 41.1947 40.1995 39.2046 38.2099 37.2156 36.2215 35.2278 34.2345 33.2415 32.249 31.257 30.2655 29.2746 28.2843 27.2947 26.3059 25.318 24.3311 23.3452 22.3607 21.3776 20.3961 19.4165 18.4391 17.4642 16.4924 15.5242 14.5602 13.6015 12.6491 11.7047 10.7703 9.84886 8.94427 8 7 6 5 4 3 2 1 0 1 1.41421 1 0 1 1.41421 2.23607 2.23607 1.41421 1 1 1 1.41421 2.23607 3.16228 4.12311 4.24264 3.60555 3.16228 3 2.82843 2.23607 1.41421 1 1 1 1 1.41421 2.23607 2.82843 3.60555 4.24264 5 5.83095 6.7082 7.61577 8.544 9.48683 10.4403 11.4018 12.3693 13.3417 14.3178 15.2971 16.2788 17.2627 18.2483 19.2354 20.2237 21.2132 22.2036 23.1948 24.1868 25.1794 26.1725 27.1662 28.1603 29.1548 29.4279 29.2746 29.1548 29.0689 29.0172 29 28.8617 28.6356 28.4429 28.2843 28.1603 28.0713 28.0179 28 28 28.0179 28.0713 28.1603 28.2843 28.4429 28.6356 28.8617 29.1204 29.4109 29.7321 30.0832 30.4631 30.8707 31.305 31.6228 31.9531 32.311 32.6956 33.1059 33.541 34 34.4819 34.9857 35.2278 35.3553 35.5106 35.6931 35.9026 36.1386 36.4006 36.6879 37 37 37 37 37 37.0135 37.054 37.1214 37.1618 36.7696 36.4006 36.0555 35.7351 35.4401 35.171 34.9285 34.7131 34.4384 34.0147 33.6155 33.2415 32.8938 32.573 32.28 31.9531 31.6228 31.3209 31.0483 30.8058 30.5941 30.4138 30.2655 30.1496 30.0666 30.0167 30 29.7321 29.4109 29.1204 28.7924 28.4605 28.1603 27.8568 27.5136 27.2029 26.9258 26.5707 26.2488 25.9615 25.7099 25.4951 25.318 25.1794 25.0799 25.02 25 25 25 25 25 25 25 25 25 25.02 25.0799 25.1794 25.318 25.4951 25.7099 25.9615 26 26 26 26 26 25.9615 25.7099 25.4951 25.318 25.1794 25.0799 25.02 25 25 25 25 24.7386 24.5153 24.3311 24.0208 23.0217 22.0227 21.0238 20.025 19.0263 18.0278 17.0294 16.0312 15.0333 14.0357 13.0384 12.0416 11.0454 10.0499 9.05539 8.06226 7.07107 6.08276 5.09902 4.12311 3.16228 2.23607 1.41421 1 1 1 1 0 0 0 1 1.41421 1 0 1 2 3 4 5 6 7 8 9 10 11 11 10 9 8 7 6 5 4 3 2 1 0 0 1 1.41421 2.23607 3.16228 4.12311 5.09902 6.08276 7.07107 8.06226 8.94427 9.84886 10.6301 11.4018 12.2066 13.0384 13.8924 14.7648 15.6525 16.5529 17.4642 18.3848 19.3132 20.2485 21.1896 22.1359 23.0868 24.0416 25 25.9422 26.8328 27.7308 28.6356 29.5466 30.4631 31.3847 32.311 33.2415 34.176 35.1141 36.0555 37 37.9473 38.833 39.6611 40.4969 41.3401 42.19 43.0465 43.909 44.7772 45.6508 46.5296 47.4131 48.3011 49.1935 50.0899 50.9902 51.8941 52.8015 53.7122 54.037 53.2635 52.4976 51.7397 50.9902 50.2494 49.5177 48.7955 48.0833 47.3814 46.669 45.9674 45.2548 44.5533 43.8634 43.1856 42.5206 41.8688 41.2311 40.6079 40 39.4081 38.833 38.2753 37.7359 37.2156 36.7151 36.2353 35.7771 35.3412 34.9285 34.5398 34.176 33.8378 33.5261 33.2415 32.9848 32.7567 32.5576 32.3883 32.249 32.1403 32.0624 32.0156 32 32 32 32.0156 32.0624 32.1403 32.249 32.3883 32.5576 32.7567 32.9848 33.2415 33.5261 33.8378 34.176 34.5398 34.9285 35.3412 35.7771 36 35 34 33 32 31 30 29 28 27 26 25 24 23 22 21 20 19 18 17 16 15 14 13 12 11 10 9 8 7 6 5 4 3 2 1 0
0 1 2 3 4 5 6 7 8 9 10 11 12 13 14 15 16 17 18 19 20 21 22 23 24 25 26 27 28 29 30 31 32 33 34 35 36 37 38 39 40 41 42 43 44 45 46 47 48 49 48.2597 47.2652 46.2709 45.2769 44.2832 43.2897 42.2966 41.3038 40.3113 39.3192 38.3275 37.3363 36.3456 35.3553 34.3657 33.3766 32.3883 31.4006 30.4138 29.4279 28.4429 27.4591 26.4764 25.4951 24.5153 23.5372 22.561 21.587 20.6155 19.6469 18.6815 17.72 16.7631 15.8114 14.8661 13.9284 13 12 11 10 9 8 7 6 5 4 3 2 1 0 0 1 1 0 0 1 2 1.41421 1 1 1 1 1.41421 2.23607 3.16228 4.12311 3.60555 2.82843 2.23607 2 2 1.41421 1 0 0 0 0 1 1.41421 2.23607 2.82843 3.60555 4.47214 5.38516 6.32456 7.28011 8.24621 9.21954 10.198 11.1803 12.1655 13.1529 14.1421 15.1327 16.1245 17.1172 18.1108 19.105 20.0998 21.095 22.0907 23.0868 24.0832 25.0799 26.0768 27.074 28.0713 29.0689 30.0666 30.2655 30.1496 30.0666 30.0167 30 29.8329 29.6142 29.4279 29.2746 29.1548 29.0689 29.0172 29 29 29.0172 29.0689 29.1548 29.2746 29.4279 29.6142 29.8329 30.0832 30.3645 30.6757 31.0161 31.3847 31.7805 32.2025 32.573 32.8938 33.2415 33.6155 34 34 34.0147 34.0588 34.1321 34.2345 34.3657 34.5254 34.7131 34.9285 35.171 35.4401 35.7351 36 36 36 36 36 36.0139 36.0555 36.1248 36.2215 35.8469 35.4683 35.1141 34.7851 34.4819 34.2053 33.9559 33.7343 33.541 33.1059 32.6956 32.311 31.9531 31.6228 31.3209 31.0161 30.6757 30.3645 30.0832 29.8329 29.6142 29.4279 29.2746 29.1548 29.0689 29.0172 29 28.7924 28.4605 28.1603 27.8568 27.5136 27.2029 26.9258 26.5707 26.2488 25.9615 25.632 25.2982 25 24.7386 24.5153 24.3311 24.1868 24.0832 24.0208 24 24 24 24 24 24 24 24 24 24.0208 24.0832 24.1868 24.3311 24.5153 24.7386 25 25 25 25 25 25 25 24.7386 24.5153 24.3311 24.1868 24.0832 24.0208 24 24 24 24 23.7697 23.5372 23.3452 23.1948 23.0868 22.0907 21.095 20.0998 19.105 18.1108 17.1172 16.1245 15.1327 14.1421 13.1529 12.1655 11.1803 10.198 9.21954 8.24621 7.28011 6.32456 5.38516 4.47214 3.60555 2.82843 2.23607 2 2 2 1.41421 1 1 0 0 1 1 0 1 2 3 4 5 6 7 8 9 10 11 10.7703 9.84886 8.94427 8 7 6 5 4 3 2 1 0 1 1.41421 2.23607 2.82843 3.60555 4.47214 5.38516 6.32456 7.28011 8.24621 9.21954 10.198 11.1803 12.0416 12.8062 13.6015 14.4222 15.2643 16.1245 17 17.8885 18.7883 19.6977 20.6155 21.5407 22.4722 23.4094 24.3516 25.2982 26.2488 27.2029 28.1603 29.0689 29.9666 30.8707 31.7805 32.6956 33.6155 34.5398 35.4683 36.4006 37.3363 38.2753 39.2173 40.1622 41.0488 41.8808 42.72 43.566 44.4185 45.2769 46.1411 47.0106 47.8853 48.7647 49.6488 50.5371 51.4296 52.3259 53.2259 54.1295 54.6717 53.9073 53.1507 52.4023 51.6624 50.9313 50.2096 49.4975 48.7955 48.0833 47.3814 46.669 45.9674 45.2769 44.5982 43.9318 43.2782 42.638 42.0119 41.4005 40.8044 40.2244 39.6611 39.1152 38.5876 38.0789 37.5899 37.1214 36.6742 36.2491 35.8469 35.4683 35.1141 34.7851 34.4819 34.2053 33.9559 33.7343 33.541 33.3766 33.2415 33.1361 33.0606 33.0151 33 33 33 33.0151 33.0606 33.1361 33.2415 33.3766 33.541 33.7343 33.9559 34.2053 34.4819 34.7851 35.1141 35.4683 35.8469 36.2491 36.6742 36 35 34 33 32 31 30 29 28 27 26 25 24 23 22 21 20 19 18 17 16 15 14 13 12 11 10 9 8 7 6 5 4 3 2 1 0
0 1 2 3 4 5 6 7 8 9 10 11 12 13 14 15 16 17 18 19 20 21 22 23 24 25 26 27 28 29 30 31 32 33 34 35 36 37 38 39 40 41 42 43 44 45 46 47 48 49 48.3735 47.3814 46.3897 45.3982 44.4072 43.4166 42.4264 41.4367 40.4475 39.4588 38.4708 37.4833 36.4966 35.5106 34.5254 33.541 32.5576 31.5753 30.5941 29.6142 28.6356 27.6586 26.6833 25.7099 24.7386 23.7697 22.8035 21.8403 20.8806 19.9249 18.9737 18.0278 17.0294 16.0312 15.0333 14.0357 13.0384 12.0416 11.0454 10.0499 9.05539 8.06226 7.07107 6.08276 5.09902 4.12311 3.16228 2.23607 1.41421 1 0 1 1 0 0 1 2 1 0 0 0 0 1 2 3 4 3.16228 2.23607 1.41421 1 1 1 0 0 1 1 0 0 1 1.41421 2.23607 3.16228 4.12311 5.09902 6.08276 7.07107 8.06226 9.05539 10.0499 11.0454 12.0416 13.0384 14.0357 15.0333 16.0312 17.0294 18.0278 19.0263 20.025 21.0238 22.0227 23.0217 24.0208 25.02 26.0192 27.0185 28.0179 29.0172 30.0167 31.0161 31.1448 31.0644 31.0161 31 30.8058 30.5941 30.4138 30.2655 30.1496 30.0666 30.0167 30 30 30.0167 30.0666 30.1496 30.2655 30.4138 30.5941 30.8058 31.0483 31.3209 31.6228 31.9531 32.311 32.6956 33.1059 33.1361 33.0606 33.0151 33 33 33 33.0151 33.0606 33.1361 33.2415 33.3766 33.541 33.7343 33.9559 34.2053 34.4819 34.7851 35 35 35 35 35 35.0143 35.0571 35.1283 35.2278 34.9285 34.5398 34.176 33.8378 33.5261 33.2415 32.9848 32.7567 32.5576 32.2025 31.7805 31.3847 31.0161 30.6757 30.3645 30.0832 29.7321 29.4109 29.1204 28.8617 28.6356 28.4429 28.2843 28.1603 28.0713 28.0179 28 27.8568 27.5136 27.2029 26.9258 26.5707 26.2488 25.9615 25.632 25.2982 25 24.6982 24.3516 24.0416 23.7697 23.5372 23.3452 23.1948 23.0868 23.0217 23 23 23 23 23 23 23 23 23 23.0217 23.0868 23.1948 23.3452 23.5372 23.7697 24 24 24 24 24 24 24 23.7697 23.5372 23.3452 23.1948 23.0868 23.0217 23 23 23 23 22.8035 22.561 22.3607 22.2036 22.0907 22.0227 21.2132 20.2237 19.2354 18.2483 17.2627 16.2788 15.2971 14.3178 13.3417 12.3693 11.4018 10.4403 9.48683 8.544 7.61577 6.7082 5.83095 5 4.24264 3.60555 3.16228 3 3 2.82843 2.23607 2 1.41421 1 0 0 0 0 1 2 3 4 5 6 7 8 9 10 11 10.2956 9.43398 8.544 7.61577 6.7082 5.83095 5 4 3 2 1 0 1 2 2.82843 3.60555 4.24264 5 5.83095 6.7082 7.61577 8.544 9.48683 10.4403 11.4018 12.3693 13.3417 14.2127 15 15.8114 16.6433 17.4929 18.3576 19.2354 20.1246 21.0238 21.9317 22.8473 23.7697 24.6982 25.632 26.5707 27.5136 28.4605 29.4109 30.3645 31.305 32.2025 33.1059 34.0147 34.9285 35.8469 36.7696 37.6962 38.6264 39.5601 40.4969 41.4367 42.3792 43.2666 44.1022 44.9444 45.793 46.6476 47.5079 48.3735 49.2443 50.1199 51 51.8845 52.7731 53.6656 54.5619 55.3173 54.5619 53.8145 53.0754 52.345 51.6236 50.9117 50.2096 49.4975 48.7955 48.0833 47.3814 46.6905 46.0109 45.3431 44.6878 44.0454 43.4166 42.8019 42.2019 41.6173 41.0488 40.4969 39.9625 39.4462 38.9487 38.4708 38.0132 37.5766 37.1618 36.7696 36.4006 36.0555 35.7351 35.4401 35.171 34.9285 34.7131 34.5254 34.3657 34.2345 34.1321 34.0588 34.0147 34 34 34 34.0147 34.0588 34.1321 34.2345 34.3657 34.5254 34.7131 34.9285 35.171 35.4401 35.7351 36.0555 36.4006 36.7696 37.1618 37 36 35 34 33 32 31 30 29 28 27 26 25 24 23 22 21 20 19 18 17 16 15 14 13 12 11 10 9 8 7 6 5 4 3 2 1 0
0 1 2 3 4 5 6 7 8 9 10 11 12 13 14 15 16 17 18 19 20 21 22 23 24 25 26 27 28 29 30 31 32 33 34 35 36 37 38 39 40 41 42 43 44 45 46 47 48 49 48.5077 47.5184 46.5296 45.5412 44.5533 43.566 42.5793 41.5933 40.6079 39.6232 38.6394 37.6563 36.6742 35.6931 34.7131 33.7343 32.7567 31.7805 30.8058 29.8329 28.8617 27.8927 26.9258 25.9615 25 24.0416 23.0868 22.0907 21.095 20.0998 19.105 18.1108 17.1172 16.1245 15.1327 14.1421 13.1529 12.1655 11.1803 10.198 9.21954 8.24621 7.28011 6.32456 5.38516 4.47214 3.60555 2.82843 2 1 0 1 1.41421 1 0 1 1.41421 1 0 1 1 0 1 2 3 4 3 2 1 0 0 1 0 1 1.41421 1.41421 1 0 0 1 2 3 4 5 6 7 8 9 10 11 12 13 14 15 16 17 18 19 20 21 22 23 24 25 26 27 28 29 30 31 32 32.0624 32.0156 32 31.7805 31.5753 31.4006 31.257 31.1448 31.0644 31.0161 31 31 31.0161 31.0644 31.1448 31.257 31.4006 31.5753 31.7805 32.0156 32.28 32.573 32.7567 32.5576 32.3883 32.249 32.1403 32.0624 32.0156 32 32 32 32.0156 32.0624 32.1403 32.249 32.3883 32.5576 32.7567 32.9848 33.2415 33.5261 33.8378 34 34 34 34 34 34.0147 34.0588 34.1321 34.2345 34.0147 33.6155 33.2415 32.8938 32.573 32.28 32.0156 31.7805 31.5753 31.305 30.8707 30.4631 30.0832 29.7321 29.4109 29.1204 28.7924 28.4605 28.1603 27.8927 27.6586 27.4591 27.2947 27.1662 27.074 27.0185 27 26.9258 26.5707 26.2488 25.9615 25.632 25.2982 25 24.6982 24.3516 24.0416 23.7697 23.4094 23.0868 22.8035 22.561 22.3607 22.2036 22.0907 22.0227 22 22 22 22 22 22 22 22 22 22.0227 22.0907 22.2036 22.3607 22.561 22.8035 23 23 23 23 23 23 23 22.8035 22.561 22.3607 22.2036 22.0907 22.0227 22 22 22 22 21.8403 21.587 21.3776 21.2132 21.095 21.0238 21 20.3961 19.4165 18.4391 17.4642 16.4924 15.5242 14.5602 13.6015 12.6491 11.7047 10.7703 9.84886 8.94427 8.06226 7.2111 6.40312 5.65685 5 4.47214 4.12311 4 4 3.60555 3.16228 2.82843 2.23607 1.41421 1 1 1 1 1.41421 2.23607 3.16228 4.12311 5.09902 6.08276 7.07107 8.06226 9.05539 10.0499 10.6301 9.84886 8.94427 8.06226 7.2111 6.32456 5.38516 4.47214 3.60555 2.82843 2 1 0 1 2 3 4 5 5.65685 6.40312 7.2111 8.06226 8.94427 9.84886 10.7703 11.7047 12.6491 13.6015 14.5602 15.5242 16.4012 17.2047 18.0278 18.868 19.7231 20.5913 21.4709 22.3607 23.2594 24.1661 25.0799 26 26.9258 27.8568 28.7924 29.7321 30.6757 31.6228 32.573 33.5261 34.4384 35.3412 36.2491 37.1618 38.0789 39 39.9249 40.8534 41.7852 42.72 43.6578 44.5982 45.4863 46.3249 47.1699 48.0208 48.8774 49.7393 50.6063 51.4781 52.3546 53.2353 54.1202 55.0091 55.9017 55.2268 54.4885 53.7587 53.0377 52.3259 51.6236 50.9117 50.2096 49.4975 48.7955 48.1041 47.4236 46.7547 46.0977 45.4533 44.8219 44.2041 43.6005 43.0116 42.4382 41.8808 41.3401 40.8167 40.3113 39.8246 39.3573 38.9102 38.4838 38.0789 37.6962 37.3363 37 36.6879 36.4006 36.1386 35.9026 35.6931 35.5106 35.3553 35.2278 35.1283 35.0571 35.0143 35 35 35 35.0143 35.0571 35.1283 35.2278 35.3553 35.5106 35.6931 35.9026 36.1386 36.4006 36.6879 37 37.3363 37.6962 38 37 36 35 34 33 32 31 30 29 28 27 26 25 24 23 22 21 20 19 18 17 16 15 14 13 12 11 10 9 8 7 6 5 4 3 2 1 0
0 1 2 3 4 5 6 7 8 9 10 11 12 13 14 15 16 17 18 19 20 21 22 23 24 25 26 27 28 29 30 31 32 33 34 35 36 37 38 39 40 41 42 43 44 45 46 47 48 48 48 47.676 46.6905 45.7056 44.7214 43.7379 42.7551 41.7732 40.7922 39.8121 38.833 37.855 36.8782 35.9026 34.9285 33.9559 32.9848 32.0156 31.0483 30.0832 29.1204 28.1603 27.1662 26.1725 25.1794 24.1868 23.1948 22.2036 21.2132 20.2237 19.2354 18.2483 17.2627 16.2788 15.2971 14.3178 13.3417 12.3693 11.4018 10.4403 9.48683 8.544 7.61577 6.7082 5.83095 5 4 3 2 1 0 0 1 1 0 0 1 1 0 1 1 0 1 2 3 4 3 2 1 0 0 1 0 1 2 2.23607 1.41421 1 0 1 2 3 4 5 6 7 8 9 10 11 12 13 14 15 16 17 18 19 20 21 22 23 24 25 26 27 28 29 30 31 32 33 33.0151 32.9848 32.7567 32.5576 32.3883 32.249 32.1403 32.0624 32.0156 32 32 32.0156 32.0624 32.1403 32.249 32.3883 32.5576 32.7567 32.573 32.28 32.0156 31.7805 31.5753 31.4006 31.257 31.1448 31.0644 31.0161 31 31 31 31.0161 31.0644 31.1448 31.257 31.4006 31.5753 31.7805 32.0156 32.28 32.573 32.8938 33 33 33 33 33 33.0151 33.0606 33.1361 33.2415 33.1059 32.6956 32.311 31.9531 31.6228 31.3209 31.0483 30.8058 30.5941 30.4138 29.9666 29.5466 29.1548 28.7924 28.4605 28.1603 27.8568 27.5136 27.2029 26.9258 26.6833 26.4764 26.3059 26.1725 26.0768 26.0192 26 26 25.632 25.2982 25 24.6982 24.3516 24.0416 23.7697 23.4094 23.0868 22.8035 22.4722 22.1359 21.8403 21.587 21.3776 21.2132 21.095 21.0238 21 21 21 21 21 21 21 21 21 21.0238 21.095 21.2132 21.3776 21.587 21.8403 22 22 22 22 22 22 22 21.8403 21.587 21.3776 21.2132 21.095 21.0238 21 21 21 21 20.8806 20.6155 20.3961 20.2237 20.0998 20.025 20 20 19.6469 18.6815 17.72 16.7631 15.8114 14.8661 13.9284 13 12.083 11.1803 10.2956 9.43398 8.60233 7.81025 7.07107 6.40312 5.83095 5.38516 5.09902 5 5 4.47214 4.12311 3.60555 2.82843 2.23607 2 2 2 2 2.23607 2.82843 3.60555 4.47214 5.38516 6.32456 7.28011 8.24621 9.21954 10 9.8995 9.21954 8.48528 7.61577 6.7082 5.83095 5 4.12311 3.16228 2.23607 1.41421 1 0 1 2 3 4 5 6 7 7.81025 8.60233 9.43398 10.2956 11.1803 12.083 13 13.9284 14.8661 15.8114 16.7631 17.72 18.6011 19.4165 20.2485 21.095 21.9545 22.8254 23.7065 24.5967 25.4951 26.4008 27.313 28.2312 29.1548 30.0832 31.0161 31.9531 32.8938 33.8378 34.7851 35.7351 36.6742 37.5766 38.4838 39.3954 40.3113 41.2311 42.1545 43.0813 44.0114 44.9444 45.8803 46.8188 47.7074 48.5489 49.3964 50.2494 51.1077 51.9711 52.8394 53.7122 54.5894 55.4707 56.356 55.9017 55.1725 54.4518 53.7401 53.0377 52.3259 51.6236 50.9117 50.2096 49.5177 48.8365 48.1664 47.5079 46.8615 46.2277 45.607 45 44.4072 43.8292 43.2666 42.72 42.19 41.6773 41.1825 40.7063 40.2492 39.8121 39.3954 39 38.6264 38.2753 37.9473 37.6431 37.3631 37.108 36.8782 36.6742 36.4966 36.3456 36.2215 36.1248 36.0555 36.0139 36 36 36 36.0139 36.0555 36.1248 36.2215 36.3456 36.4966 36.6742 36.8782 37.108 37.3631 37.6431 37.9473 38.2753 38.6264 38 37 36 35 34 33 32 31 30 29 28 27 26 25 24 23 22 21 20 19 18 17 16 15 14 13 12 11 10 9 8 7 6 5 4 3 2 1 0
0 1 2 3 4 5 6 7 8 9 10 11 12 13 14 15 16 17 18 19 20 21 22 23 24 25 26 27 28 29 30 31 32 33 34 35 36 37 38 39 40 41 42 43 44 45 46 47 47 47 47 47 46.8722 45.8912 44.911 43.9318 42.9535 41.9762 41 40.025 39.0512 38.0789 37.108 36.1386 35.171 34.2053 33.2415 32.249 31.257 30.2655 29.2746 28.2843 27.2947 26.3059 25.318 24.3311 23.3452 22.3607 21.3776 20.3961 19.4165 18.4391 17.4642 16.4924 15.5242 14.5602 13.6015 12.6491 11.7047 10.7703 9.84886 8.94427 8.06226 7.07107 6.08276 5.09902 4.12311 3.16228 2.23607 1.41421 1 0 1 1.41421 1 0 1 1 0 1 0 0 1 2 3 4 3.16228 2.23607 1.41421 1 0 0 0 1 2 2 1 0 0 1 2 3 4 5 6 7 8 9 10 11 12 13 14 15 16 17 18 19 20 21 22 23 24 25 26 27 28 29 30 31 32 33 34 33.9559 33.7343 33.541 33.3766 33.2415 33.1361 33.0606 33.0151 33 33 33.0151 33.0606 33.1361 33.1059 32.6956 32.311 31.9531 31.6228 31.3209 31.0483 30.8058 30.5941 30.4138 30.2655 30.1496 30.0666 30.0167 30 30 30 30.0167 30.0666 30.1496 30.2655 30.4138 30.5941 30.8058 31.0483 31.3209 31.6228 31.9531 32 32 32 32 32 32.0156 32.0624 32.1403 32.249 32.2025 31.7805 31.3847 31.0161 30.6757 30.3645 30.0832 29.8329 29.6142 29.4279 29.0689 28.6356 28.2312 27.8568 27.5136 27.2029 26.9258 26.5707 26.2488 25.9615 25.7099 25.4951 25.318 25.1794 25.0799 25.02 25 25 24.6982 24.3516 24.0416 23.7697 23.4094 23.0868 22.8035 22.4722 22.1359 21.8403 21.5407 21.1896 20.8806 20.6155 20.3961 20.2237 20.0998 20.025 20 20 20 20 20 20 20 20 20 20.025 20.0998 20.2237 20.3961 20.6155 20.8806 21 21 21 21 21 21 21 20.8806 20.6155 20.3961 20.2237 20.0998 20.025 20 20 20 20 19.9249 19.6469 19.4165 19.2354 19.105 19.0263 19 19 19 18.9737 18.0278 17.088 16.1555 15.2315 14.3178 13.4164 12.53 11.6619 10.8167 10 9.21954 8.48528 7.81025 7.2111 6.7082 6.32456 6.08276 6 5.83095 5.38516 5 4.24264 3.60555 3.16228 3 3 3 3 3.16228 3.60555 4.24264 5 5.83095 6.7082 7.61577 8.544 9 9 9 8.48528 7.81025 7.07107 6.32456 5.38516 4.47214 3.60555 2.82843 2 1 0 0 1 2 3 4 5 6 7 8 9 10 10.8167 11.6619 12.53 13.4164 14.3178 15.2315 16.1555 17.088 18.0278 18.9737 19.9249 20.8087 21.6333 22.4722 23.3238 24.1868 25.0599 25.9422 26.8328 27.7308 28.6356 29.5466 30.4631 31.3847 32.311 33.2415 34.176 35.1141 36.0555 37 37.9473 38.8973 39.8121 40.7185 41.6293 42.5441 43.4626 44.3847 45.31 46.2385 47.1699 48.1041 49.0408 49.93 50.774 51.6236 52.4786 53.3385 54.2033 55.0727 55.9464 56.8243 56.5862 55.8659 55.1543 54.4518 53.7401 53.0377 52.3259 51.6236 50.9313 50.2494 49.5782 48.9183 48.2701 47.634 47.0106 46.4004 45.8039 45.2217 44.6542 44.1022 43.566 43.0465 42.5441 42.0595 41.5933 41.1461 40.7185 40.3113 39.9249 39.5601 39.2173 38.8973 38.6005 38.3275 38.0789 37.855 37.6563 37.4833 37.3363 37.2156 37.1214 37.054 37.0135 37 37 37 37.0135 37.054 37.1214 37.2156 37.3363 37.4833 37.6563 37.855 38.0789 38.3275 38.6005 38.8973 39.2173 39 38 37 36 35 34 33 32 31 30 29 28 27 26 25 24 23 22 21 20 19 18 17 16 15 14 13 12 11 10 9 8 7 6 5 4 3 2 1 0
0 1 2 3 4 5 6 7 8 9 10 11 12 13 14 15 16 17 18 19 20 21 22 23 24 25 26 27 28 29 30 31 32 33 34 35 36 37 38 39 40 41 42 43 44 45 46 46 46 46 46 46 46 46 45.1221 44.1475 43.1741 42.2019 41.2311 40.2616 39.2938 38.3275 37.3363 36.3456 35.3553 34.3657 33.3766 32.3883 31.4006 30.4138 29.4279 28.4429 27.4591 26.4764 25.4951 24.5153 23.5372 22.561 21.587 20.6155 19.6469 18.6815 17.72 16.7631 15.8114 14.8661 13.9284 13 12.083 11.1803 10.198 9.21954 8.24621 7.28011 6.32456 5.38516 4.47214 3.60555 2.82843 2 1 0 1 1.41421 1 0 1 1 0 0 0 1 1.41421 2.23607 3.16228 4.12311 3.60555 2.82843 2 1 0 1 1 1.41421 2 2 1 0 1 1.41421 2.23607 3.16228 4.12311 5.09902 6.08276 7.07107 8.06226 9.05539 10.0499 11.0454 12.0416 13.0384 14.0357 15.0333 16.0312 17.0294 18.0278 19.0263 20.025 21.0238 22.0227 23.0217 24.0208 25.02 26.0192 27.0185 28.0179 29.0172 30.0167 31.0161 32.0156 33.0151 34.0147 34.9285 34.7131 34.5254 34.3657 34.2345 34.1321 34.0588 34.0147 34 34 33.6155 33.121 32.6497 32.2025 31.7805 31.3847 31.0161 30.6757 30.3645 30.0832 29.8329 29.6142 29.4279 29.2746 29.1548 29.0689 29.0172 29 29 29 29.0172 29.0689 29.1548 29.2746 29.4279 29.6142 29.8329 30.0832 30.3645 30.6757 31 31 31 31 31 31 31.0161 31.0644 31.1448 31.257 31.305 30.8707 30.4631 30.0832 29.7321 29.4109 29.1204 28.8617 28.6356 28.4429 28.178 27.7308 27.313 26.9258 26.5707 26.2488 25.9615 25.632 25.2982 25 24.7386 24.5153 24.3311 24.1868 24.0832 24.0208 24 24 23.7697 23.4094 23.0868 22.8035 22.4722 22.1359 21.8403 21.5407 21.1896 20.8806 20.6155 20.2485 19.9249 19.6469 19.4165 19.2354 19.105 19.0263 19 19 19 19 19 19 19 19 19 19.0263 19.105 19.2354 19.4165 19.6469 19.9249 20 20 20 20 20 20 20 19.9249 19.6469 19.4165 19.2354 19.105 19.0263 19 19 19 19 18.9737 18.6815 18.4391 18.2483 18.1108 18.0278 18 18 18 18.0278 17.72 17.4642 16.5529 15.6525 14.7648 13.8924 13.0384 12.2066 11.4018 10.6301 9.8995 9.21954 8.60233 8.06226 7.61577 7.28011 7.07107 7 6.7082 6.32456 5.65685 5 4.47214 4.12311 4 4 4 4 4.12311 4.47214 5 5.65685 6.40312 7.2111 8.06226 8.06226 8 8 8 7.81025 7.07107 6.40312 5.65685 5 4.12311 3.16228 2.23607 1.41421 1 0 0 1 2 3 4 5 6 7 8 9 10 11 12 13 13.8924 14.7648 15.6525 16.5529 17.4642 18.3848 19.3132 20.2485 21.1896 22.1359 23.0217 23.8537 24.6982 25.5539 26.4197 27.2947 28.178 29.0689 29.9666 30.8707 31.7805 32.6956 33.6155 34.5398 35.4683 36.4006 37.3363 38.2753 39.2173 40.1622 41.1096 42.0476 42.9535 43.8634 44.7772 45.6946 46.6154 47.5395 48.4665 49.3964 50.3289 51.264 52.1536 53 53.8516 54.7083 55.5698 56.4358 57.3062 57.28 56.5685 55.8659 55.1543 54.4518 53.7401 53.0377 52.345 51.6624 50.9902 50.3289 49.679 49.0408 48.4149 47.8017 47.2017 46.6154 46.0435 45.4863 44.9444 44.4185 43.909 43.4166 42.9418 42.4853 42.0476 41.6293 41.2311 40.8534 40.4969 40.1622 39.8497 39.5601 39.2938 39.0512 38.833 38.6394 38.4708 38.3275 38.2099 38.1182 38.0526 38.0132 38 38 38 38.0132 38.0526 38.1182 38.2099 38.3275 38.4708 38.6394 38.833 39.0512 39.2938 39.5601 39.8497 40 39 38 37 36 35 34 33 32 31 30 29 28 27 26 25 24 23 22 21 20 19 18 17 16 15 14 13 12 11 10 9 8 7 6 5 4 3 2 1 0
0 1 2 3 4 5 6 7 8 9 10 11 12 13 14 15 16 17 18 19 20 21 22 23 24 25 26 27 28 29 30 31 32 33 34 35 36 37 38 39 40 41 42 43 44 45 45.0111 45 45 45 45 45 45 45 45 44.3847 43.4166 42.4264 41.4367 40.4475 39.4588 38.4708 37.4833 36.4966 35.5106 34.5254 33.541 32.5576 31.5753 30.5941 29.6142 28.6356 27.6586 26.6833 25.7099 24.7386 23.7697 22.8035 21.8403 20.8806 19.9249 18.9737 18.0278 17.088 16.1555 15.2315 14.3178 13.3417 12.3693 11.4018 10.4403 9.48683 8.544 7.61577 6.7082 5.83095 5 4 3 2 1 0 0 1 1 0 0 1 1 1 1 1.41421 2.23607 2.82843 3.60555 3.60555 3.16228 2.23607 1.41421 1 0 1 1.41421 1 1 1 1 0 1 2 2.82843 3.60555 4.47214 5.38516 6.32456 7.28011 8.24621 9.21954 10.198 11.1803 12.1655 13.1529 14.1421 15.1327 16.1245 17.1172 18.1108 19.105 20.0998 21.095 22.0907 23.0868 24.0832 25.0799 26.0768 27.074 28.0713 29.0689 30.0666 31.0644 32.0624 33.0606 34.0588 35.0571 35.6931 35.5106 35.3553 35.2278 35.1283 35 34.4093 33.8378 33.2866 32.7567 32.249 31.7648 31.305 30.8707 30.4631 30.0832 29.7321 29.4109 29.1204 28.8617 28.6356 28.4429 28.2843 28.1603 28.0713 28.0179 28 28 28 28.0179 28.0713 28.1603 28.2843 28.4429 28.6356 28.8617 29.1204 29.4109 29.7321 30 30 30 30 30 30 30.0167 30.0666 30.1496 30.2655 30.4138 29.9666 29.5466 29.1548 28.7924 28.4605 28.1603 27.8927 27.6586 27.4591 27.2947 26.8328 26.4008 26 25.632 25.2982 25 24.6982 24.3516 24.0416 23.7697 23.5372 23.3452 23.1948 23.0868 23.0217 23 23 22.8473 22.4722 22.1359 21.8403 21.5407 21.1896 20.8806 20.6155 20.2485 19.9249 19.6469 19.3132 18.9737 18.6815 18.4391 18.2483 18.1108 18.0278 18 18 18 18 18 18 18 18 18 18.0278 18.1108 18.2483 18.4391 18.6815 18.9737 19 19 19 19 19 19 19 18.9737 18.6815 18.4391 18.2483 18.1108 18.0278 18 18 18 18 18 17.72 17.4642 17.2627 17.1172 17.0294 17 17 17 17.0294 16.7631 16.4924 16.2788 16.1245 15.2643 14.4222 13.6015 12.8062 12.0416 11.3137 10.6301 10 9.43398 8.94427 8.544 8.24621 8.06226 8 7.61577 7.07107 6.40312 5.83095 5.38516 5.09902 5 5 5 5 5.09902 5.38516 5.83095 6.40312 7.07107 7.61577 7.28011 7.07107 7 7 7 7 6.40312 5.65685 5 4.24264 3.60555 2.82843 2 1 0 0 1 1.41421 2.23607 3.16228 4.12311 5.09902 6.08276 7.07107 8.06226 9.05539 10.0499 11.0454 12.0416 13.0384 14.0357 15.0333 16.0312 17 17.8885 18.7883 19.6977 20.6155 21.5407 22.4722 23.4094 24.3516 25.2389 26.0768 26.9258 27.7849 28.6531 29.5296 30.4138 31.305 32.2025 33.1059 34.0147 34.9285 35.8469 36.7696 37.6962 38.6264 39.5601 40.4969 41.4367 42.3792 43.3244 44.2719 45.1885 46.0977 47.0106 47.927 48.8467 49.7695 50.6952 51.6236 52.5547 53.4883 54.3783 55.2268 56.0803 56.9386 57.8014 57.9828 57.28 56.5685 55.8659 55.1543 54.4518 53.7587 53.0754 52.4023 51.7397 51.0882 50.448 49.8197 49.2037 48.6004 48.0104 47.4342 46.8722 46.3249 45.793 45.2769 44.7772 44.2945 43.8292 43.382 42.9535 42.5441 42.1545 41.7852 41.4367 41.1096 40.8044 40.5216 40.2616 40.025 39.8121 39.6232 39.4588 39.3192 39.2046 39.1152 39.0512 39.0128 39 39 39 39.0128 39.0512 39.1152 39.2046 39.3192 39.4588 39.6232 39.8121 40.025 40.2616 40.5216 40.8044 40 39 38 37 36 35 34 33 32 31 30 29 28 27 26 25 24 23 22 21 20 19 18 17 16 15 14 13 12 11 10 9 8 7 6 5 4 3 2 1 0
0 1 2 3 4 5 6 7 8 9 10 11 12 13 14 15 16 17 18 19 20 21 22 23 24 25 26 27 28 29 30 31 32 33 34 35 36 37 38 39 40 41 42 43 44 44.0454 44.0114 44 44 44 44 44 44 44 44 44 43.566 42.5793 41.5933 40.6079 39.6232 38.6394 37.6563 36.6742 35.6931 34.7131 33.7343 32.7567 31.7805 30.8058 29.8329 28.8617 27.8927 26.9258 25.9615 25 24.0416 23.0868 22.1359 21.1896 20.2485 19.3132 18.3848 17.4642 16.4924 15.5242 14.5602 13.6015 12.6491 11.7047 10.7703 9.84886 8.94427 8.06226 7.07107 6.08276 5.09902 4.12311 3.16228 2.23607 1.41421 1 0 1 1.41421 1 0 1 1.41421 2 2 2.23607 2.82843 3.60555 3.60555 2.82843 2.23607 2 1 0 0 1 1 0 0 0 1 0 1 1.41421 2.23607 3.16228 4.12311 5.09902 6.08276 7.07107 8.06226 9.05539 10.0499 11.0454 12.0416 13.0384 14.0357 15.0333 16.0312 17.0294 18.0278 19.0263 20.025 21.0238 22.0227 23.0217 24.0208 25.02 26.0192 27.0185 28.0179 29.0172 30.0167 31.0161 32.0156 33.0151 34.0147 35.0143 36.0139 36.4966 36.1248 35.4683 34.8281 34.2053 33.6006 33.0151 32.45 31.9061 31.3847 30.8869 30.4138 29.9666 29.5466 29.1548 28.7924 28.4605 28.1603 27.8927 27.6586 27.4591 27.2947 27.1662 27.074 27.0185 27 27 27 27.0185 27.074 27.1662 27.2947 27.4591 27.6586 27.8927 28.1603 28.4605 28.7924 29 29 29 29 29 29 29.0172 29.0689 29.1548 29.2746 29.4279 29.0689 28.6356 28.2312 27.8568 27.5136 27.2029 26.9258 26.6833 26.4764 26.3059 25.9422 25.4951 25.0799 24.6982 24.3516 24.0416 23.7697 23.4094 23.0868 22.8035 22.561 22.3607 22.2036 22.0907 22.0227 22 22 21.9317 21.5407 21.1896 20.8806 20.6155 20.2485 19.9249 19.6469 19.3132 18.9737 18.6815 18.3848 18.0278 17.72 17.4642 17.2627 17.1172 17.0294 17 17 17 17 17 17 17 17 17 17.0294 17.1172 17.2627 17.4642 17.72 18 18 18 18 18 18 18 18 18 17.72 17.4642 17.2627 17.1172 17.0294 17 17 17 17 17 16.7631 16.4924 16.2788 16.1245 16.0312 16 16 16 16.0312 15.8114 15.5242 15.2971 15.1327 15.0333 15 14.2127 13.4536 12.7279 12.0416 11.4018 10.8167 10.2956 9.84886 9.48683 9.21954 9.05539 8.94427 8.48528 7.81025 7.2111 6.7082 6.32456 6.08276 6 6 6 6 6.08276 6.32456 6.7082 7.2111 7.2111 6.7082 6.32456 6.08276 6 6 6 6 5.83095 5 4.24264 3.60555 2.82843 2.23607 1.41421 1 0 0 1 2 2.82843 3.60555 4.47214 5.38516 6.32456 7.28011 8.24621 9.21954 10.198 11.1803 12.1655 13.1529 14.1421 15.1327 16.1245 17.1172 18.1108 19.105 20.0998 21.0238 21.9317 22.8473 23.7697 24.6982 25.632 26.5707 27.4591 28.3019 29.1548 30.0167 30.8869 31.7648 32.6497 33.541 34.4384 35.3412 36.2491 37.1618 38.0789 39 39.9249 40.8534 41.7852 42.72 43.6578 44.5982 45.5412 46.4866 47.4236 48.3322 49.2443 50.1597 51.0784 52 52.9245 53.8516 54.7814 55.7136 56.6039 57.4543 58.3095 58.6941 57.9828 57.28 56.5685 55.8659 55.1725 54.4885 53.8145 53.1507 52.4976 51.8556 51.225 50.6063 50 49.4065 48.8262 48.2597 47.7074 47.1699 46.6476 46.1411 45.6508 45.1774 44.7214 44.2832 43.8634 43.4626 43.0813 42.72 42.3792 42.0595 41.7612 41.4849 41.2311 41 40.7922 40.6079 40.4475 40.3113 40.1995 40.1123 40.05 40.0125 40 40 40 40.0125 40.05 40.1123 40.1995 40.3113 40.4475 40.6079 40.7922 41 41.2311 41.4849 41 40 39 38 37 36 35 34 33 32 31 30 29 28 27 26 25 24 23 22 21 20 19 18 17 16 15 14 13 12 11 10 9 8 7 6 5 4 3 2 1 0
0 1 2 3 4 5 6 7 8 9 10 11 12 13 14 15 16 17 18 19 20 21 22 23 24 25 26 27 28 29 30 31 32 33 34 35 36 37 38 39 40 41 42 43 43.1045 43.0465 43.0116 43 43 43 43 43 43 43 43 43 43 42.7551 41.7732 40.7922 39.8121 38.833 37.855 36.8782 35.9026 34.9285 33.9559 32.9848 32.0156 31.0483 30.0832 29.1204 28.1603 27.2029 26.2488 25.2982 24.3516 23.4094 22.4722 21.5407 20.6155 19.6469 18.6815 17.72 16.7631 15.8114 14.8661 13.9284 13 12.083 11.1803 10.198 9.21954 8.24621 7.28011 6.32456 5.38516 4.47214 3.60555 2.82843 2 1 0 0 1 1 0 0 1 2 3 3.16228 3.60555 4.12311 3.16228 2.23607 1.41421 1 1 0 1 1.41421 1 0 0 0 1 0 0 1 2 3 4 5 6 7 8 9 10 11 12 13 14 15 16 17 18 19 20 21 22 23 24 25 26 27 28 29 30 31 32 33 34 35 36 36.0694 35.3836 34.7131 34.0588 33.4216 32.8024 32.2025 31.6228 31.0644 30.5287 30.0167 29.5296 29.0689 28.6356 28.2312 27.8568 27.5136 27.2029 26.9258 26.6833 26.4764 26.3059 26.1725 26.0768 26.0192 26 26 26 26.0192 26.0768 26.1725 26.3059 26.4764 26.6833 26.9258 27.2029 27.5136 27.8568 28 28 28 28 28 28 28.0179 28.0713 28.1603 28.2843 28.4429 28.178 27.7308 27.313 26.9258 26.5707 26.2488 25.9615 25.7099 25.4951 25.318 25.0599 24.5967 24.1661 23.7697 23.4094 23.0868 22.8035 22.4722 22.1359 21.8403 21.587 21.3776 21.2132 21.095 21.0238 21 21 21.0238 20.6155 20.2485 19.9249 19.6469 19.3132 18.9737 18.6815 18.3848 18.0278 17.72 17.4642 17.088 16.7631 16.4924 16.2788 16.1245 16.0312 16 16 16 16 16 16 16 16 16 16.0312 16.1245 16.2788 16.4924 16.7631 17 17 17 17 17 17 17 17 17 16.7631 16.4924 16.2788 16.1245 16.0312 16 16 16 16 16 15.8114 15.5242 15.2971 15.1327 15.0333 15 15 15 15.0333 14.8661 14.5602 14.3178 14.1421 14.0357 14 14 14 13.4536 12.8062 12.2066 11.6619 11.1803 10.7703 10.4403 10.198 10.0499 9.84886 9.21954 8.60233 8.06226 7.61577 7.28011 7.07107 7 7 7 7 7.07107 7.28011 7.61577 7.07107 6.40312 5.83095 5.38516 5.09902 5 5 5 5 5 4.47214 3.60555 2.82843 2.23607 1.41421 1 0 0 1 1.41421 2.23607 3.16228 4.12311 5 5.83095 6.7082 7.61577 8.544 9.48683 10.4403 11.4018 12.3693 13.3417 14.3178 15.2971 16.2788 17.2627 18.2483 19.2354 20.2237 21.2132 22.2036 23.1948 24.1661 25.0799 26 26.9258 27.8568 28.7924 29.6816 30.5287 31.3847 32.249 33.121 34 34.8855 35.7771 36.6742 37.5766 38.4838 39.3954 40.3113 41.2311 42.1545 43.0813 44.0114 44.9444 45.8803 46.8188 47.7598 48.7032 49.6488 50.5668 51.4781 52.3927 53.3104 54.231 55.1543 56.0803 57.0088 57.9396 58.8303 59.397 58.6941 57.9828 57.28 56.5862 55.9017 55.2268 54.5619 53.9073 53.2635 52.6308 52.0096 51.4004 50.8035 50.2195 49.6488 49.0918 48.5489 48.0208 47.5079 47.0106 46.5296 46.0652 45.618 45.1885 44.7772 44.3847 44.0114 43.6578 43.3244 43.0116 42.72 42.45 42.2019 41.9762 41.7732 41.5933 41.4367 41.3038 41.1947 41.1096 41.0488 41.0122 41 41 41 41.0122 41.0488 41.1096 41.1947 41.3038 41.4367 41.5933 41.7732 41.9762 42.2019 42 41 40 39 38 37 36 35 34 33 32 31 30 29 28 27 26 25 24 23 22 21 20 19 18 17 16 15 14 13 12 11 10 9 8 7 6 5 4 3 2 1 0
0 1 2 3 4 5 6 7 8 9 10 11 12 13 14 15 16 17 18 19 20 21 22 23 24 25 26 27 28 29 30 31 32 33 34 35 36 37 38 39 40 41 42 42.19 42.107 42.0476 42.0119 42 42 42 42 42 42 42 42 42 42 42 41.9762 41 40.025 39.0512 38.0789 37.108 36.1386 35.171 34.2053 33.2415 32.28 31.3209 30.3645 29.4109 28.4605 27.5136 26.5707 25.632 24.6982 23.7697 22.8035 21.8403 20.8806 19.9249 18.9737 18.0278 17.088 16.1555 15.2315 14.3178 13.3417 12.3693 11.4018 10.4403 9.48683 8.544 7.61577 6.7082 5.83095 5 4.12311 3.16228 2.23607 1.41421 1 0 1 1.41421 1 0 1 2 2.82843 3.60555 4.47214 4 3 2 1 0 0 0 1 1 0 0 0 1 1 0 0 1 2 3 4 5 6 7 8 9 10 11 12 13 14 15 16 17 18 19 20 21 22 23 24 25 26 27 28 29 30 31 32 33 34 35 36 35.3553 34.6554 33.9706 33.3017 32.6497 32.0156 31.4006 30.8058 30.2324 29.6816 29.1548 28.6531 28.178 27.7308 27.313 26.9258 26.5707 26.2488 25.9615 25.7099 25.4951 25.318 25.1794 25.0799 25.02 25 25 25 25.02 25.0799 25.1794 25.318 25.4951 25.7099 25.9615 26.2488 26.5707 26.9258 27 27 27 27 27 27 27.0185 27.074 27.1662 27.2947 27.4591 27.2947 26.8328 26.4008 26 25.632 25.2982 25 24.7386 24.5153 24.3311 24.1868 23.7065 23.2594 22.8473 22.4722 22.1359 21.8403 21.5407 21.1896 20.8806 20.6155 20.3961 20.2237 20.0998 20.025 20 20 20.025 19.6977 19.3132 18.9737 18.6815 18.3848 18.0278 17.72 17.4642 17.088 16.7631 16.4924 16.1555 15.8114 15.5242 15.2971 15.1327 15.0333 15 15 15 15 15 15 15 15 15 15.0333 15.1327 15.2971 15.5242 15.8114 16 16 16 16 16 16 16 16 16 15.8114 15.5242 15.2971 15.1327 15.0333 15 15 15 15 15 14.8661 14.5602 14.3178 14.1421 14.0357 14 14 14 14.0357 13.9284 13.6015 13.3417 13.1529 13.0384 13 13 13 13 13 13 12.53 12.083 11.7047 11.4018 11.1803 11.0454 10.6301 10 9.43398 8.94427 8.544 8.24621 8.06226 8 8 8 8 8.06226 8.06226 7.2111 6.40312 5.65685 5 4.47214 4.12311 4 4 4 4 4 3.60555 3.16228 2.23607 1.41421 1 0 0 1 1.41421 2.23607 2.82843 3.60555 4.47214 5.38516 6.32456 7.2111 8.06226 8.94427 9.84886 10.7703 11.7047 12.6491 13.6015 14.5602 15.5242 16.4924 17.4642 18.4391 19.4165 20.3961 21.3776 22.3607 23.3452 24.3311 25.318 26.3059 27.2947 28.2312 29.1548 30.0832 31.0161 31.9061 32.7567 33.6155 34.4819 35.3553 36.2353 37.1214 38.0132 38.9102 39.8121 40.7185 41.6293 42.5441 43.4626 44.3847 45.31 46.2385 47.1699 48.1041 49.0408 49.98 50.9215 51.8652 52.8015 53.7122 54.626 55.5428 56.4624 57.3847 58.3095 59.2368 60.1082 59.397 58.6941 58 57.3149 56.6392 55.9732 55.3173 54.6717 54.037 53.4135 52.8015 52.2015 51.614 51.0392 50.4777 49.93 49.3964 48.8774 48.3735 47.8853 47.4131 46.9574 46.5188 46.0977 45.6946 45.31 44.9444 44.5982 44.2719 43.9659 43.6807 43.4166 43.1741 42.9535 42.7551 42.5793 42.4264 42.2966 42.19 42.107 42.0476 42.0119 42 42 42 42.0119 42.0476 42.107 42.19 42.2966 42.4264 42.5793 42.7551 42.9535 43 42 41 40 39 38 37 36 35 34 33 32 31 30 29 28 27 26 25 24 23 22 21 20 19 18 17 16 15 14 13 12 11 10 9 8 7 6 5 4 3 2 1 0
0 1 2 3 4 5 6 7 8 9 10 11 12 13 14 15 16 17 18 19 20 21 22 23 24 25 26 27 28 29 30 31 32 33 34 35 36 37 38 39 40 41 41.3038 41.1947 41.1096 41.0488 41.0122 41 41 41 41 41 41 41 41 41 41 41 41 41 40.2616 39.2938 38.3275 37.3631 36.4006 35.4401 34.4819 33.5261 32.573 31.6228 30.6757 29.7321 28.7924 27.8568 26.9258 25.9615 25 24.0416 23.0868 22.1359 21.1896 20.2485 19.3132 18.3848 17.4642 16.4924 15.5242 14.5602 13.6015 12.6491 11.7047 10.7703 9.84886 8.94427 8.06226 7.2111 6.32456 5.38516 4.47214 3.60555 2.82843 2 1 0 0 1 1 0 1 1.41421 2.23607 3.16228 4.12311 3.60555 2.82843 2 1 0 0 1 1.41421 1 0 1 0 1 0 0 0 1 2 3 4 5 6 7 8 9 10 11 12 13 14 15 16 17 18 19 20 21 22 23 24 25 26 27 28 29 30 31 32 33 34 35 35.3836 34.6554 33.9411 33.2415 32.5576 31.8904 31.241 30.6105 30 29.4109 28.8444 28.3019 27.7849 27.2947 26.8328 26.4008 26 25.632 25.2982 25 24.7386 24.5153 24.3311 24.1868 24.0832 24.0208 24 24 24 24.0208 24.0832 24.1868 24.3311 24.5153 24.7386 25 25.2982 25.632 26 26 26 26 26 26 26 26.0192 26.0768 26.1725 26.3059 26.4764 26.4197 25.9422 25.4951 25.0799 24.6982 24.3516 24.0416 23.7697 23.5372 23.3452 23.1948 22.8254 22.3607 21.9317 21.5407 21.1896 20.8806 20.6155 20.2485 19.9249 19.6469 19.4165 19.2354 19.105 19.0263 19 19 19.0263 18.7883 18.3848 18.0278 17.72 17.4642 17.088 16.7631 16.4924 16.1555 15.8114 15.5242 15.2315 14.8661 14.5602 14.3178 14.1421 14.0357 14 14 14 14 14 14 14 14 14 14.0357 14.1421 14.3178 14.5602 14.8661 15 15 15 15 15 15 15 15 15 14.8661 14.5602 14.3178 14.1421 14.0357 14 14 14 14 14 13.9284 13.6015 13.3417 13.1529 13.0384 13 13 13 13.0384 13 12.6491 12.3693 12.1655 12.0416 12 12 12 12 12 12 12 12 12.0416 12.1655 12.1655 12.0416 11.4018 10.8167 10.2956 9.84886 9.48683 9.21954 9.05539 9 9 9 9 8.544 7.61577 6.7082 5.83095 5 4.24264 3.60555 3.16228 3 3 3 3 3 2.82843 2.23607 2 1 0 0 1 1.41421 2.23607 2.82843 3.60555 4.24264 5 5.83095 6.7082 7.61577 8.544 9.43398 10.2956 11.1803 12.083 13 13.9284 14.8661 15.8114 16.7631 17.72 18.6815 19.6469 20.6155 21.587 22.561 23.5372 24.5153 25.4951 26.4764 27.4591 28.4429 29.4279 30.4138 31.3847 32.311 33.2415 34.1321 34.9857 35.8469 36.7151 37.5899 38.4708 39.3573 40.2492 41.1461 42.0476 42.9535 43.8634 44.7772 45.6946 46.6154 47.5395 48.4665 49.3964 50.3289 51.264 52.2015 53.1413 54.0833 55.0273 55.9464 56.8595 57.7754 58.6941 59.6154 60.5392 60.1082 59.4138 58.7282 58.0517 57.3847 56.7274 56.0803 55.4437 54.8179 54.2033 53.6004 53.0094 52.4309 51.8652 51.3128 50.774 50.2494 49.7393 49.2443 48.7647 48.3011 47.8539 47.4236 47.0106 46.6154 46.2385 45.8803 45.5412 45.2217 44.9222 44.643 44.3847 44.1475 43.9318 43.7379 43.566 43.4166 43.2897 43.1856 43.1045 43.0465 43.0116 43 43 43 43.0116 43.0465 43.1045 43.1856 43.2897 43.4166 43.566 43.7379 43.9318 43 42 41 40 39 38 37 36 35 34 33 32 31 30 29 28 27 26 25 24 23 22 21 20 19 18 17 16 15 14 13 12 11 10 9 8 7 6 5 4 3 2 1 0
0 1 2 3 4 5 6 7 8 9 10 11 12 13 14 15 16 17 18 19 20 21 22 23 24 25 26 27 28 29 30 31 32 33 34 35 36 37 38 39 40 40.4475 40.3113 40.1995 40.1123 40.05 40.0125 40 40 40 40 40 40 40 40 40 40 40 40 40 40 39.5601 38.6005 37.6431 36.6879 35.7351 34.7851 33.8378 32.8938 31.9531 31.0161 30.0832 29.1204 28.1603 27.2029 26.2488 25.2982 24.3516 23.4094 22.4722 21.5407 20.6155 19.6469 18.6815 17.72 16.7631 15.8114 14.8661 13.9284 13 12.083 11.1803 10.2956 9.43398 8.544 7.61577 6.7082 5.83095 5 4.12311 3.16228 2.23607 1.41421 1 0 1 1 0 0 1 2 3 4 3.16228 2.23607 1.41421 1 0 0 1 1 0 0 1 0 1 0 0 0 1 2 3 4 5 6 7 8 9 10 11 12 13 14 15 16 17 18 19 20 21 22 23 24 25 26 27 28 29 30 31 32 33 34 35 34.7131 33.9706 33.2415 32.5269 31.8277 31.1448 30.4795 29.8329 29.2062 28.6007 28.0179 27.4591 26.9258 26.4197 25.9422 25.4951 25.0799 24.6982 24.3516 24.0416 23.7697 23.5372 23.3452 23.1948 23.0868 23.0217 23 23 23 23.0217 23.0868 23.1948 23.3452 23.5372 23.7697 24.0416 24.3516 24.6982 25.02 25 25 25 25 25 25 25.02 25.0799 25.1794 25.318 25.4951 25.5539 25.0599 24.5967 24.1661 23.7697 23.4094 23.0868 22.8035 22.561 22.3607 22.2036 21.9545 21.4709 21.0238 20.6155 20.2485 19.9249 19.6469 19.3132 18.9737 18.6815 18.4391 18.2483 18.1108 18.0278 18 18 18.0278 17.8885 17.4642 17.088 16.7631 16.4924 16.1555 15.8114 15.5242 15.2315 14.8661 14.5602 14.3178 13.9284 13.6015 13.3417 13.1529 13.0384 13 13 13 13 13 13 13 13 13 13.0384 13.1529 13.3417 13.6015 13.9284 14 14 14 14 14 14 14 14 14 13.9284 13.6015 13.3417 13.1529 13.0384 13 13 13 13 13 13 12.6491 12.3693 12.1655 12.0416 12 12 12 12.0416 12 11.7047 11.4018 11.1803 11.0454 11 11 11 11 11 11 11 11 11.0454 11.1803 11.4018 11.7047 12.083 11.6619 11.1803 10.7703 10.4403 10.198 10.0499 10 10 10 9.21954 8.24621 7.28011 6.32456 5.38516 4.47214 3.60555 2.82843 2.23607 2 2 2 2 2 2 1.41421 1 1 0 1 1.41421 2.23607 2.82843 3.60555 4.24264 5 5.65685 6.40312 7.2111 8.06226 8.94427 9.84886 10.7703 11.6619 12.53 13.4164 14.3178 15.2315 16.1555 17.088 18.0278 18.9737 19.9249 20.8806 21.8403 22.8035 23.7697 24.7386 25.7099 26.6833 27.6586 28.6356 29.6142 30.5941 31.5753 32.5576 33.541 34.5254 35.4683 36.3593 37.2156 38.0789 38.9487 39.8246 40.7063 41.5933 42.4853 43.382 44.2832 45.1885 46.0977 47.0106 47.927 48.8467 49.7695 50.6952 51.6236 52.5547 53.4883 54.4243 55.3624 56.3028 57.2451 58.1808 59.0931 60.0083 60.9262 60.8276 60.1415 59.4643 58.7963 58.1378 57.4891 56.8507 56.2228 55.6058 55 54.4059 53.8238 53.2541 52.6973 52.1536 51.6236 51.1077 50.6063 50.1199 49.6488 49.1935 48.7545 48.3322 47.927 47.5395 47.1699 46.8188 46.4866 46.1736 45.8803 45.607 45.3542 45.1221 44.911 44.7214 44.5533 44.4072 44.2832 44.1814 44.1022 44.0454 44.0114 44 44 44 44.0114 44.0454 44.1022 44.1814 44.2832 44.4072 44.5533 44.7214 44 43 42 41 40 39 38 37 36 35 34 33 32 31 30 29 28 27 26 25 24 23 22 21 20 19 18 17 16 15 14 13 12 11 10 9 8 7 6 5 4 3 2 1 0
0 1 2 3 4 5 6 7 8 9 10 11 12 13 14 15 16 17 18 19 20 21 22 23 24 25 26 27 28 29 30 31 32 33 34 35 36 37 38 39 39.4588 39.4588 39.3192 39.2046 39.1152 39.0512 39.0128 39 39 39 39 39 39 39 39 39 39 39 39 39 39 39 38.8973 37.9473 37 36.0555 35.1141 34.176 33.2415 32.28 31.3209 30.3645 29.4109 28.4605 27.5136 26.5707 25.632 24.6982 23.7697 22.8035 21.8403 20.8806 19.9249 18.9737 18.0278 17.088 16.1555 15.2315 14.3178 13.4164 12.53 11.6619 10.7703 9.84886 8.94427 8.06226 7.2111 6.32456 5.38516 4.47214 3.60555 2.82843 2 1 0 1 1.41421 1 0 1 2 2.82843 3.60555 2.82843 2 1 0 0 1 1.41421 1 0 1 1 0 1 0 0 0 1 2 3 4 5 6 7 8 9 10 11 12 13 14 15 16 17 18 19 20 21 22 23 24 25 26 27 28 29 30 31 32 33 34 34.0588 34.0147 33.3017 32.5576 31.8277 31.1127 30.4138 29.7321 29.0689 28.4253 27.8029 27.2029 26.6271 26.0768 25.5539 25.0599 24.5967 24.1661 23.7697 23.4094 23.0868 22.8035 22.561 22.3607 22.2036 22.0907 22.0227 22 22 22 22.0227 22.0907 22.2036 22.3607 22.561 22.8035 23.0868 23.4094 23.7697 24.0208 24 24 24 24 24 24 24.0208 24.0832 24.1868 24.3311 24.5153 24.6982 24.1868 23.7065 23.2594 22.8473 22.4722 22.1359 21.8403 21.587 21.3776 21.2132 21.095 20.5913 20.1246 19.6977 19.3132 18.9737 18.6815 18.3848 18.0278 17.72 17.4642 17.2627 17.1172 17.0294 17 17 17.0294 17 16.5529 16.1555 15.8114 15.5242 15.2315 14.8661 14.5602 14.3178 13.9284 13.6015 13.3417 13 12.6491 12.3693 12.1655 12.0416 12 12 12 12 12 12 12 12 12 12.0416 12.1655 12.3693 12.6491 13 13 13 13 13 13 13 13 13 13 13 12.6491 12.3693 12.1655 12.0416 12 12 12 12 12 12 11.7047 11.4018 11.1803 11.0454 11 11 11 11.0454 11 10.7703 10.4403 10.198 10.0499 10 10 10 10 10 10 10 10 10.0499 10.198 10.4403 10.7703 11.1803 11.6619 12.083 11.7047 11.4018 11.1803 11.0454 11 11 10.0499 9.05539 8.06226 7.07107 6.08276 5.09902 4.12311 3.16228 2.23607 1.41421 1 1 1 1 1 1 1 0 0 0 1 2 2.82843 3.60555 4.24264 5 5.65685 6.40312 7.07107 7.81025 8.60233 9.43398 10.2956 11.1803 12.083 13 13.8924 14.7648 15.6525 16.5529 17.4642 18.3848 19.3132 20.2485 21.1896 22.1359 23.0868 24.0416 25 25.9615 26.9258 27.8927 28.8617 29.8329 30.8058 31.7805 32.7567 33.7343 34.7131 35.6931 36.6742 37.6563 38.5876 39.4462 40.3113 41.1825 42.0595 42.9418 43.8292 44.7214 45.618 46.5188 47.4236 48.3322 49.2443 50.1597 51.0784 52 52.9245 53.8516 54.7814 55.7136 56.648 57.5847 58.5235 59.4643 60.407 61.327 61.5549 60.8769 60.208 59.5483 58.8982 58.258 57.6281 57.0088 56.4004 55.8032 55.2178 54.6443 54.0833 53.535 53 52.4786 51.9711 51.4781 51 50.5371 50.0899 49.6588 49.2443 48.8467 48.4665 48.1041 47.7598 47.4342 47.1275 46.8402 46.5725 46.3249 46.0977 45.8912 45.7056 45.5412 45.3982 45.2769 45.1774 45.0999 45.0444 45.0111 45 45 45 45.0111 45.0444 45.0999 45.1774 45.2769 45.3982 45.5412 45 44 43 42 41 40 39 38 37 36 35 34 33 32 31 30 29 28 27 26 25 24 23 22 21 20 19 18 17 16 15 14 13 12 11 10 9 8 7 6 5 4 3 2 1 0
0 1 2 3 4 5 6 7 8 9 10 11 12 13 14 15 16 17 18 19 20 21 22 23 24 25 26 27 28 29 30 31 32 33 34 35 36 37 38 38.3275 38.4708 38.4708 38.3275 38.2099 38.1182 38.0526 38.0132 38 38 38 38 38 38 38 38 38 38 38 38 38 38 38 38 38 37.3363 36.4006 35.4401 34.4819 33.5261 32.573 31.6228 30.6757 29.7321 28.7924 27.8568 26.9258 25.9615 25 24.0416 23.0868 22.1359 21.1896 20.2485 19.3132 18.3848 17.4642 16.5529 15.6525 14.7648 13.8924 13 12.083 11.1803 10.2956 9.43398 8.544 7.61577 6.7082 5.83095 5 4 3 2 1 0 0 1 1 0 1 1.41421 2.23607 3.16228 2.23607 1.41421 1 0 1 1.41421 1 0 0 1 0 0 1 0 1 1 1.41421 2.23607 3.16228 4.12311 5.09902 6.08276 7.07107 8.06226 9.05539 10.0499 11.0454 12.0416 13.0384 14.0357 15.0333 16.0312 17.0294 18.0278 19.0263 20.025 21.0238 22.0227 23.0217 24.0208 25.02 26.0192 27.0185 28.0179 29.0172 30.0167 31.0161 32.0156 33 33.0151 33.0606 33.1059 32.6497 31.8904 31.1448 30.4138 29.6985 29 28.3196 27.6586 27.0185 26.4008 25.807 25.2389 24.6982 24.1868 23.7065 23.2594 22.8473 22.4722 22.1359 21.8403 21.587 21.3776 21.2132 21.095 21.0238 21 21 21 21.0238 21.095 21.2132 21.3776 21.587 21.8403 22.1359 22.4722 22.8473 23.0217 23 23 23 23 23 23 23.0217 23.0868 23.1948 23.3452 23.5372 23.7697 23.3238 22.8254 22.3607 21.9317 21.5407 21.1896 20.8806 20.6155 20.3961 20.2237 20.0998 19.7231 19.2354 18.7883 18.3848 18.0278 17.72 17.4642 17.088 16.7631 16.4924 16.2788 16.1245 16.0312 16 16 16.0312 16 15.6525 15.2315 14.8661 14.5602 14.3178 13.9284 13.6015 13.3417 13 12.6491 12.3693 12.083 11.7047 11.4018 11.1803 11.0454 11 11 11 11 11 11 11 11 11 11.0454 11.1803 11.4018 11.7047 12 12 12 12 12 12 12 12 12 12 12 11.7047 11.4018 11.1803 11.0454 11 11 11 11 11 11 10.7703 10.4403 10.198 10.0499 10 10 10 10.0499 10 9.84886 9.48683 9.21954 9.05539 9 9 9 9 9 9 9 9 9.05539 9.21954 9.48683 9.84886 10.2956 10.8167 11.4018 12.0416 12.3693 12.1655 12.0416 12 11 10 9 8 7 6 5 4 3 2 1 0 0 0 0 0 0 0 0 1 1 1.41421 2.23607 3.16228 4.12311 5 5.65685 6.40312 7.07107 7.81025 8.48528 9.21954 10 10.8167 11.6619 12.53 13.4164 14.3178 15.2315 16.1245 17 17.8885 18.7883 19.6977 20.6155 21.5407 22.4722 23.4094 24.3516 25.2982 26.2488 27.2029 28.1603 29.1204 30.0832 31.0483 32.0156 32.9848 33.9559 34.9285 35.9026 36.8782 37.855 38.833 39.8121 40.7922 41.6773 42.5441 43.4166 44.2945 45.1774 46.0652 46.9574 47.8539 48.7545 49.6588 50.5668 51.4781 52.3927 53.3104 54.231 55.1543 56.0803 57.0088 57.9396 58.8727 59.808 60.7454 61.6847 62.2896 61.6198 60.959 60.3075 59.6657 59.0339 58.4123 57.8014 57.2014 56.6127 56.0357 55.4707 54.9181 54.3783 53.8516 53.3385 52.8394 52.3546 51.8845 51.4296 50.9902 50.5668 50.1597 49.7695 49.3964 49.0408 48.7032 48.3839 48.0833 47.8017 47.5395 47.2969 47.0744 46.8722 46.6905 46.5296 46.3897 46.2709 46.1736 46.0977 46.0435 46.0109 46 46 46 46.0109 46.0435 46.0977 46.1736 46.2709 46.3897 46 45 44 43 42 41 40 39 38 37 36 35 34 33 32 31 30 29 28 27 26 25 24 23 22 21 20 19 18 17 16 15 14 13 12 11 10 9 8 7 6 5 4 3 2 1 0
0 1 2 3 4 5 6 7 8 9 10 11 12 13 14 15 16 17 18 19 20 21 22 23 24 25 26 27 28 29 30 31 32 33 34 35 36 37 37.2156 37.3363 37.4833 37.4833 37.3363 37.2156 37.1214 37.054 37.0135 37 37 37 37 37 37 37 37 37 37 37 37 37 37 37 37 37 37 36.6879 35.7351 34.7851 33.8378 32.8938 31.9531 31.0161 30.0832 29.1204 28.1603 27.2029 26.2488 25.2982 24.3516 23.4094 22.4722 21.5407 20.6155 19.6977 18.7883 17.8885 17 16.1245 15.2315 14.3178 13.4164 12.53 11.6619 10.7703 9.84886 8.94427 8.06226 7.07107 6.08276 5.09902 4.12311 3.16228 2.23607 1.41421 1 0 1 1 0 0 1 2 2.82843 2 1 0 0 1 1.41421 1 0 1 1 0 1 1 0 1 2 2.23607 2.82843 3.60555 4.47214 5.38516 6.32456 7.28011 8.24621 9.21954 10.198 11.1803 12.1655 13.1529 14.1421 15.1327 16.1245 17.1172 18.1108 19.105 20.0998 21.095 22.0907 23.0868 24.0832 25.0799 26.0768 27.074 28.0713 29.0689 30.0666 31.0644 32 32 32.0156 32.0624 32.1403 31.7805 31.241 30.4795 29.7321 29 28.2843 27.5862 26.9072 26.2488 25.6125 25 24.4131 23.8537 23.3238 22.8254 22.3607 21.9317 21.5407 21.1896 20.8806 20.6155 20.3961 20.2237 20.0998 20.025 20 20 20 20.025 20.0998 20.2237 20.3961 20.6155 20.8806 21.1896 21.5407 21.9317 22.0227 22 22 22 22 22 22 22.0227 22.0907 22.2036 22.3607 22.561 22.8035 22.4722 21.9545 21.4709 21.0238 20.6155 20.2485 19.9249 19.6469 19.4165 19.2354 19.105 18.868 18.3576 17.8885 17.4642 17.088 16.7631 16.4924 16.1555 15.8114 15.5242 15.2971 15.1327 15.0333 15 15 15.0333 15 14.7648 14.3178 13.9284 13.6015 13.3417 13 12.6491 12.3693 12.083 11.7047 11.4018 11.1803 10.7703 10.4403 10.198 10.0499 10 10 10 10 10 10 10 10 10 10.0499 10.198 10.4403 10.7703 11 11 11 11 11 11 11 11 11 11 11 10.7703 10.4403 10.198 10.0499 10 10 10 10 10 10 9.84886 9.48683 9.21954 9.05539 9 9 9 9.05539 9 8.94427 8.544 8.24621 8.06226 8 8 8 8 8 8 8 8 8.06226 8.24621 8.544 8.94427 9.43398 10 10.6301 11.3137 12.0416 12.7279 13 12 11 10 9 8 7 6 5 4 3 2 1 0 1 1 1 1 1 1 1 1.41421 2 2.23607 2.82843 3.60555 4.47214 5.38516 6.32456 7.07107 7.81025 8.48528 9.21954 9.8995 10.6301 11.4018 12.2066 13.0384 13.8924 14.7648 15.6525 16.5529 17.4642 18.3576 19.2354 20.1246 21.0238 21.9317 22.8473 23.7697 24.6982 25.632 26.5707 27.5136 28.4605 29.4109 30.3645 31.3209 32.28 33.2415 34.2053 35.171 36.1386 37.108 38.0789 39.0512 40.025 41 41.9762 42.9535 43.909 44.7772 45.6508 46.5296 47.4131 48.3011 49.1935 50.0899 50.9902 51.8941 52.8015 53.7122 54.626 55.5428 56.4624 57.3847 58.3095 59.2368 60.1664 61.0983 62.0322 62.9682 62.3699 61.7171 61.0737 60.4401 59.8164 59.203 58.6003 58.0086 57.4282 56.8595 56.3028 55.7584 55.2268 54.7083 54.2033 53.7122 53.2353 52.7731 52.3259 51.8941 51.4781 51.0784 50.6952 50.3289 49.98 49.6488 49.3356 49.0408 48.7647 48.5077 48.2701 48.0521 47.8539 47.676 47.5184 47.3814 47.2652 47.1699 47.0956 47.0425 47.0106 47 47 47 47.0106 47.0425 47.0956 47.1699 47.2652 47 46 45 44 43 42 41 40 39 38 37 36 35 34 33 32 31 30 29 28 27 26 25 24 23 22 21 20 19 18 17 16 15 14 13 12 11 10 9 8 7 6 5 4 3 2 1 0
0 1 2 3 4 5 6 7 8 9 10 11 12 13 14 15 16 17 18 19 20 21 22 23 24 25 26 27 28 29 30 31 32 33 34 35 36 36.1248 36.2215 36.3456 36.4966 36.4966 36.3456 36.2215 36.1248 36.0555 36.0139 36 36 36 36 36 36 36 36 36 36 36 36 36 36 36 36 36 36 36 36 35.1141 34.176 33.2415 32.28 31.3209 30.3645 29.4109 28.4605 27.5136 26.5707 25.632 24.6982 23.7697 22.8473 21.9317 21.0238 20.1246 19.2354 18.3576 17.4642 16.5529 15.6525 14.7648 13.8924 13 12.083 11.1803 10.198 9.21954 8.24621 7.28011 6.32456 5.38516 4.47214 3.60555 2.82843 2 1 0 0 1 1 0 1 1.41421 2.23607 1.41421 1 0 1 1.41421 1 0 0 1 0 0 1 1 0 1 2 3 3.60555 4.24264 5 5.83095 6.7082 7.61577 8.544 9.48683 10.4403 11.4018 12.3693 13.3417 14.3178 15.2971 16.2788 17.2627 18.2483 19.2354 20.2237 21.2132 22.2036 23.1948 24.1868 25.1794 26.1725 27.1662 28.1603 29.1548 30.1496 31 31 31 31.0161 31.0644 31.1448 30.8707 30.4631 29.8329 29.0689 28.3196 27.5862 26.8701 26.1725 25.4951 24.8395 24.2074 23.6008 23.0217 22.4722 21.9545 21.4709 21.0238 20.6155 20.2485 19.9249 19.6469 19.4165 19.2354 19.105 19.0263 19 19 19 19.0263 19.105 19.2354 19.4165 19.6469 19.9249 20.2485 20.6155 21.0238 21.0238 21 21 21 21 21 21 21.0238 21.095 21.2132 21.3776 21.587 21.8403 21.5407 21.095 20.5913 20.1246 19.6977 19.3132 18.9737 18.6815 18.4391 18.2483 18.1108 18.0278 17.4929 17 16.5529 16.1555 15.8114 15.5242 15.2315 14.8661 14.5602 14.3178 14.1421 14.0357 14 14 14.0357 14 13.8924 13.4164 13 12.6491 12.3693 12.083 11.7047 11.4018 11.1803 10.7703 10.4403 10.198 9.84886 9.48683 9.21954 9.05539 9 9 9 9 9 9 9 9 9 9.05539 9.21954 9.48683 9.84886 10 10 10 10 10 10 10 10 10 10 10 9.84886 9.48683 9.21954 9.05539 9 9 9 9 9 9 8.94427 8.544 8.24621 8.06226 8 8 8 8.06226 8 8 7.61577 7.28011 7.07107 7 7 7 7 7 7 7 7 7.07107 7.28011 7.61577 8.06226 8.60233 9.21954 9.8995 10.6301 11.3137 12.0416 12.8062 12 11 10 9 8 7 6 5 4 3 2 1 0 1 2 2 2 2 2 2 2.23607 2.82843 3.16228 3.60555 4.24264 5 5.83095 6.7082 7.61577 8.48528 9.21954 9.8995 10.6301 11.3137 12.0416 12.8062 13.6015 14.4222 15.2643 16.1245 17 17.8885 18.7883 19.6977 20.5913 21.4709 22.3607 23.2594 24.1661 25.0799 26 26.9258 27.8568 28.7924 29.7321 30.6757 31.6228 32.573 33.5261 34.4819 35.4401 36.4006 37.3631 38.3275 39.2938 40.2616 41.2311 42.2019 43.1741 44.1475 45.1221 46.0977 47.0106 47.8853 48.7647 49.6488 50.5371 51.4296 52.3259 53.2259 54.1295 55.0364 55.9464 56.8595 57.7754 58.6941 59.6154 60.5392 61.4654 62.3939 63.3246 63.1269 62.482 61.8466 61.2209 60.6053 60 59.4054 58.8218 58.2495 57.6888 57.1402 56.6039 56.0803 55.5698 55.0727 54.5894 54.1202 53.6656 53.2259 52.8015 52.3927 52 51.6236 51.264 50.9215 50.5964 50.2892 50 49.7293 49.4773 49.2443 49.0306 48.8365 48.6621 48.5077 48.3735 48.2597 48.1664 48.0937 48.0416 48.0104 48 48 48 48.0104 48.0416 48.0937 48.1664 48 47 46 45 44 43 42 41 40 39 38 37 36 35 34 33 32 31 30 29 28 27 26 25 24 23 22 21 20 19 18 17 16 15 14 13 12 11 10 9 8 7 6 5 4 3 2 1 0
0 1 2 3 4 5 6 7 8 9 10 11 12 13 14 15 16 17 18 19 20 21 22 23 24 25 26 27 28 29 30 31 32 33 34 35 35.0571 35.1283 35.2278 35.3553 35.5106 35.5106 35.3553 35.2278 35.1283 35.0571 35.0143 35 35 35 35 35 35 35 35 35 35 35 35 35 35 35 35 35 35 35 35 35 34.4819 33.5261 32.573 31.6228 30.6757 29.7321 28.7924 27.8568 26.9258 26 25.0799 24.1661 23.2594 22.3607 21.4709 20.5913 19.6977 18.7883 17.8885 17 16.1245 15.2315 14.3178 13.3417 12.3693 11.4018 10.4403 9.48683 8.544 7.61577 6.7082 5.83095 5 4.12311 3.16228 2.23607 1.41421 1 0 1 1 0 0 1 2 1 0 0 1 1.41421 1 0 1 1 0 1 1.41421 1 0 1 2 3 4 5 5.65685 6.40312 7.2111 8.06226 8.94427 9.84886 10.7703 11.7047 12.6491 13.6015 14.5602 15.5242 16.4924 17.4642 18.4391 19.4165 20.3961 21.3776 22.3607 23.3452 24.3311 25.318 26.3059 27.2947 28.2843 29.2746 30 30 30 30 30.0167 30.0666 30.1496 29.9666 29.5466 29.1548 28.4253 27.6586 26.9072 26.1725 25.4558 24.7588 24.0832 23.4307 22.8035 22.2036 21.6333 21.095 20.5913 20.1246 19.6977 19.3132 18.9737 18.6815 18.4391 18.2483 18.1108 18.0278 18 18 18 18.0278 18.1108 18.2483 18.4391 18.6815 18.9737 19.3132 19.6977 20.0998 20.025 20 20 20 20 20 20 20.025 20.0998 20.2237 20.3961 20.6155 20.8806 20.6155 20.2485 19.7231 19.2354 18.7883 18.3848 18.0278 17.72 17.4642 17.2627 17.1172 17.0294 16.6433 16.1245 15.6525 15.2315 14.8661 14.5602 14.3178 13.9284 13.6015 13.3417 13.1529 13.0384 13 13 13.0384 13 13 12.53 12.083 11.7047 11.4018 11.1803 10.7703 10.4403 10.198 9.84886 9.48683 9.21954 8.94427 8.544 8.24621 8.06226 8 8 8 8 8 8 8 8 8 8.06226 8.24621 8.544 8.94427 9 9 9 9 9 9 9 9 9 9 9 8.94427 8.544 8.24621 8.06226 8 8 8 8 8 8 8 7.61577 7.28011 7.07107 7 7 7 7.07107 7 7 6.7082 6.32456 6.08276 6 6 6 6 6 6 6 6 6.08276 6.32456 6.7082 7.2111 7.81025 8.48528 9.21954 9.8995 10.6301 11.4018 12.2066 12 11 10 9 8 7 6 5 4 3 2 1 0 1 2 2.82843 3 3 3 3 3.16228 3.60555 4.12311 4.47214 5 5.65685 6.40312 7.2111 8.06226 8.94427 9.84886 10.6301 11.3137 12.0416 12.7279 13.4536 14.2127 15 15.8114 16.6433 17.4929 18.3576 19.2354 20.1246 21.0238 21.9317 22.8254 23.7065 24.5967 25.4951 26.4008 27.313 28.2312 29.1548 30.0832 31.0161 31.9531 32.8938 33.8378 34.7851 35.7351 36.6879 37.6431 38.6005 39.5601 40.5216 41.4849 42.45 43.4166 44.3847 45.3542 46.3249 47.2969 48.2701 49.2443 50.1199 51 51.8845 52.7731 53.6656 54.5619 55.4617 56.3649 57.2713 58.1808 59.0931 60.0083 60.9262 61.8466 62.7694 63.6946 63.8905 63.2535 62.6259 62.0081 61.4003 60.803 60.2163 59.6406 59.0762 58.5235 57.9828 57.4543 56.9386 56.4358 55.9464 55.4707 55.0091 54.5619 54.1295 53.7122 53.3104 52.9245 52.5547 52.2015 51.8652 51.5461 51.2445 50.9608 50.6952 50.448 50.2195 50.01 49.8197 49.6488 49.4975 49.366 49.2544 49.163 49.0918 49.0408 49.0102 49 49 49 49.0102 49.0408 49.0918 49 48 47 46 45 44 43 42 41 40 39 38 37 36 35 34 33 32 31 30 29 28 27 26 25 24 23 22 21 20 19 18 17 16 15 14 13 12 11 10 9 8 7 6 5 4 3 2 1 0
0 1 2 3 4 5 6 7 8 9 10 11 12 13 14 15 16 17 18 19 20 21 22 23 24 25 26 27 28 29 30 31 32 33 34 34.0147 34.0588 34.1321 34.2345 34.3657 34.5254 34.5254 34.3657 34.2345 34.1321 34.0588 34.0147 34 34 34 34 34 34 34 34 34 34 34 34 34 34 34 34 34 34 34 34 34 34 33.8378 32.8938 31.9531 31.0161 30.0832 29.1548 28.2312 27.313 26.4008 25.4951 24.5967 23.7065 22.8254 21.9317 21.0238 20.1246 19.2354 18.3576 17.4642 16.4924 15.5242 14.5602 13.6015 12.6491 11.7047 10.7703 9.84886 8.94427 8.06226 7.2111 6.32456 5.38516 4.47214 3.60555 2.82843 2 1 0 0 1 1 0 1 1.41421 1 0 1 1.41421 1 0 0 1 1 0 1 1 0 0 1 2 3 4 5 6 7 7.81025 8.60233 9.43398 10.2956 11.1803 12.083 13 13.9284 14.8661 15.8114 16.7631 17.72 18.6815 19.6469 20.6155 21.587 22.561 23.5372 24.5153 25.4951 26.4764 27.4591 28.4429 29 29 29 29 29 29.0172 29.0689 29.1548 29.0689 28.6356 28.2312 27.8029 27.0185 26.2488 25.4951 24.7588 24.0416 23.3452 22.6716 22.0227 21.4009 20.8087 20.2485 19.7231 19.2354 18.7883 18.3848 18.0278 17.72 17.4642 17.2627 17.1172 17.0294 17 17 17 17.0294 17.1172 17.2627 17.4642 17.72 18.0278 18.3848 18.7883 19.105 19.0263 19 19 19 19 19 19 19.0263 19.105 19.2354 19.4165 19.6469 19.9249 19.6469 19.3132 18.868 18.3576 17.8885 17.4642 17.088 16.7631 16.4924 16.2788 16.1245 16.0312 15.8114 15.2643 14.7648 14.3178 13.9284 13.6015 13.3417 13 12.6491 12.3693 12.1655 12.0416 12 12 12.0416 12 12 11.6619 11.1803 10.7703 10.4403 10.198 9.84886 9.48683 9.21954 8.94427 8.544 8.24621 8.06226 7.61577 7.28011 7.07107 7 7 7 7 7 7 7 7 7 7.07107 7.28011 7.61577 8 8 8 8 8 8 8 8 8 8 8 8 8 7.61577 7.28011 7.07107 7 7 7 7 7 7 7 6.7082 6.32456 6.08276 6 6 6 6.08276 6 6 5.83095 5.38516 5.09902 5 5 5 5 5 5 5 5 5.09902 5.38516 5.83095 6.40312 7.07107 7.81025 8.48528 9.21954 10 10.8167 11.6619 12 11 10 9 8 7 6 5 4 3 2 1 0 1 1.41421 2.23607 3.16228 4 4 4 4.12311 4.47214 5 5.38516 5.83095 6.40312 7.07107 7.81025 8.60233 9.43398 10.2956 11.1803 12.0416 12.7279 13.4536 14.1421 14.8661 15.6205 16.4012 17.2047 18.0278 18.868 19.7231 20.5913 21.4709 22.3607 23.2594 24.1661 25.0599 25.9422 26.8328 27.7308 28.6356 29.5466 30.4631 31.3847 32.311 33.2415 34.176 35.1141 36.0555 37 37.9473 38.8973 39.8497 40.8044 41.7612 42.72 43.6807 44.643 45.607 46.5725 47.5395 48.5077 49.4773 50.448 51.4198 52.3546 53.2353 54.1202 55.0091 55.9017 56.7979 57.6975 58.6003 59.5063 60.4152 61.327 62.2415 63.1585 64.0781 64.6607 64.0312 63.4114 62.8013 62.2013 61.6117 61.0328 60.4649 59.9083 59.3633 58.8303 58.3095 57.8014 57.3062 56.8243 56.356 55.9017 55.4617 55.0364 54.626 54.231 53.8516 53.4883 53.1413 52.811 52.4976 52.2015 51.923 51.6624 51.4198 51.1957 50.9902 50.8035 50.636 50.4876 50.3587 50.2494 50.1597 50.0899 50.04 50.01 50 50 50 50.01 50.04 50 49 48 47 46 45 44 43 42 41 40 39 38 37 36 35 34 33 32 31 30 29 28 27 26 25 24 23 22 21 20 19 18 17 16 15 14 13 12 11 10 9 8 7 6 5 4 3 2 1 0
0 1 2 3 4 5 6 7 8 9 10 11 12 13 14 15 16 17 18 19 20 21 22 23 24 25 26 27 28 29 30 31 32 33 33 33.0151 33.0606 33.1361 33.2415 33.3766 33.541 33.541 33.3766 33.2415 33.1361 33.0606 33.0151 33 33 33 33 33 33 33 33 33 33 33 33 33 33 33 33 33 33 33 33 33 33 33 33 32.311 31.3847 30.4631 29.5466 28.6356 27.7308 26.8328 25.9422 25.0599 24.1661 23.2594 22.3607 21.4709 20.5913 19.6469 18.6815 17.72 16.7631 15.8114 14.8661 13.9284 13 12.083 11.1803 10.2956 9.43398 8.544 7.61577 6.7082 5.83095 5 4.12311 3.16228 2.23607 1.41421 1 0 1 1 0 1 1 0 0 1 1 0 0 1 1.41421 1 0 1 1 0 1 1.41421 2.23607 3.16228 4.12311 5.09902 6.08276 7.07107 8.06226 9.05539 10 10.8167 11.6619 12.53 13.4164 14.3178 15.2315 16.1555 17.088 18.0278 18.9737 19.9249 20.8806 21.8403 22.8035 23.7697 24.7386 25.7099 26.6833 27.6586 28.0179 28 28 28 28 28 28.0179 28.0713 28.1603 28.1603 27.7308 27.313 26.9258 26.4008 25.6125 24.8395 24.0832 23.3452 22.6274 21.9317 21.2603 20.6155 20 19.4165 18.868 18.3576 17.8885 17.4642 17.088 16.7631 16.4924 16.2788 16.1245 16.0312 16 16 16 16.0312 16.1245 16.2788 16.4924 16.7631 17.088 17.4642 17.8885 18.1108 18.0278 18 18 18 18 18 18 18.0278 18.1108 18.2483 18.4391 18.6815 18.9737 18.6815 18.3848 18.0278 17.4929 17 16.5529 16.1555 15.8114 15.5242 15.2971 15.1327 15.0333 15 14.4222 13.8924 13.4164 13 12.6491 12.3693 12.083 11.7047 11.4018 11.1803 11.0454 11 11 11.0454 11 11 10.7703 10.2956 9.84886 9.48683 9.21954 8.94427 8.544 8.24621 8.06226 7.61577 7.28011 7.07107 6.7082 6.32456 6.08276 6 6 6 6 6 6 6 6 6 6.08276 6.32456 6.7082 7 7 7 7 7 7 7 7 7 7 7 7 7 6.7082 6.32456 6.08276 6 6 6 6 6 6 6 5.83095 5.38516 5.09902 5 5 5 5.09902 5 5 5 4.47214 4.12311 4 4 4 4 4 4 4 4 4.12311 4.47214 5 5.65685 6.40312 7.07107 7.81025 8.60233 9.43398 10.2956 11.1803 12 11 10 9 8 7 6 5 4 3 2 1 0 0 1 2 3 4 5 5 5.09902 5.38516 5.83095 6.32456 6.7082 7.2111 7.81025 8.48528 9.21954 10 10.8167 11.6619 12.53 13.4164 14.1421 14.8661 15.5563 16.2788 17.0294 17.8045 18.6011 19.4165 20.2485 21.095 21.9545 22.8254 23.7065 24.5967 25.4951 26.4008 27.2947 28.178 29.0689 29.9666 30.8707 31.7805 32.6956 33.6155 34.5398 35.4683 36.4006 37.3363 38.2753 39.2173 40.1622 41.1096 42.0595 43.0116 43.9659 44.9222 45.8803 46.8402 47.8017 48.7647 49.7293 50.6952 51.6624 52.6308 53.6004 54.5711 55.4707 56.356 57.2451 58.1378 59.0339 59.9333 60.8358 61.7414 62.6498 63.561 64.4748 65.3911 64.8151 64.2028 63.6003 63.0079 62.426 61.8547 61.2944 60.7454 60.208 59.6825 59.1693 58.6686 58.1808 57.7062 57.2451 56.7979 56.3649 55.9464 55.5428 55.1543 54.7814 54.4243 54.0833 53.7587 53.4509 53.1601 52.8867 52.6308 52.3927 52.1728 51.9711 51.788 51.6236 51.4781 51.3517 51.2445 51.1566 51.0882 51.0392 51.0098 51 51 51 51.0098 51 50 49 48 47 46 45 44 43 42 41 40 39 38 37 36 35 34 33 32 31 30 29 28 27 26 25 24 23 22 21 20 19 18 17 16 15 14 13 12 11 10 9 8 7 6 5 4 3 2 1 0
0 1 2 3 4 5 6 7 8 9 10 11 12 13 14 15 16 17 18 19 20 21 22 23 24 25 26 27 28 29 30 31 32 32 32 32.0156 32.0624 32.1403 32.249 32.3883 32.5576 32.5576 32.3883 32.249 32.1403 32.0624 32.0156 32 32 32 32 32 32 32 32 32 32 32 32 32 32 32 32 32 32 32 32 32 32 32 32 32 31.7805 30.8707 29.9666 29.0689 28.178 27.2947 26.4008 25.4951 24.5967 23.7065 22.8035 21.8403 20.8806 19.9249 18.9737 18.0278 17.088 16.1555 15.2315 14.3178 13.4164 12.53 11.6619 10.7703 9.84886 8.94427 8.06226 7.2111 6.32456 5.38516 4.47214 3.60555 2.82843 2 1 0 0 1 0 0 1 0 0 1 1 0 1 1.41421 1 0 0 1 1 0 1 2 2.82843 3.60555 4.47214 5.38516 6.32456 7.28011 8.24621 9.21954 10.198 11.1803 12.1655 13.0384 13.8924 14.7648 15.6525 16.5529 17.4642 18.3848 19.3132 20.2485 21.1896 22.1359 23.0868 24.0416 25 25.9615 26.9258 27.074 27.0185 27 27 27 27 27 27.0185 27.074 27.1662 27.2029 26.8328 26.4008 26 25.6125 25 24.2074 23.4307 22.6716 21.9317 21.2132 20.5183 19.8494 19.2094 18.6011 18.0278 17.4929 17 16.5529 16.1555 15.8114 15.5242 15.2971 15.1327 15.0333 15 15 15 15.0333 15.1327 15.2971 15.5242 15.8114 16.1555 16.5529 17 17.1172 17.0294 17 17 17 17 17 17 17.0294 17.1172 17.2627 17.4642 17.72 18 17.72 17.4642 17.088 16.6433 16.1245 15.6525 15.2315 14.8661 14.5602 14.3178 14.1421 14.0357 14 13.6015 13.0384 12.53 12.083 11.7047 11.4018 11.1803 10.7703 10.4403 10.198 10.0499 10 10 10.0499 10 10 9.84886 9.43398 8.94427 8.544 8.24621 8.06226 7.61577 7.28011 7.07107 6.7082 6.32456 6.08276 5.83095 5.38516 5.09902 5 5 5 5 5 5 5 5 5 5.09902 5.38516 5.83095 6 6 6 6 6 6 6 6 6 6 6 6 6 5.83095 5.38516 5.09902 5 5 5 5 5 5 5 5 4.47214 4.12311 4 4 4 4.12311 4 4 4 3.60555 3.16228 3 3 3 3 3 3 3 3 3.16228 3.60555 4.24264 5 5.65685 6.40312 7.2111 8.06226 8.94427 9.84886 10.7703 11.6619 11 10 9 8 7 6 5 4 3 2 1 0 0 1 2 3 4 5 6 6.08276 6.32456 6.7082 7.2111 7.61577 8.06226 8.60233 9.21954 9.8995 10.6301 11.4018 12.2066 13.0384 13.8924 14.7648 15.5563 16.2788 16.9706 17.6918 18.4391 19.2094 20 20.8087 21.6333 22.4722 23.3238 24.1868 25.0599 25.9422 26.8328 27.7308 28.6356 29.5296 30.4138 31.305 32.2025 33.1059 34.0147 34.9285 35.8469 36.7696 37.6962 38.6264 39.5601 40.4969 41.4367 42.3792 43.3244 44.2719 45.2217 46.1736 47.1275 48.0833 49.0408 50 50.9608 51.923 52.8867 53.8516 54.8179 55.7853 56.7539 57.7062 58.5918 59.4811 60.3738 61.2699 62.1691 63.0714 63.9766 64.8845 65.7951 65.6049 65 64.405 63.8201 63.2456 62.6817 62.1289 61.5873 61.0574 60.5392 60.0333 59.5399 59.0593 58.5918 58.1378 57.6975 57.2713 56.8595 56.4624 56.0803 55.7136 55.3624 55.0273 54.7083 54.4059 54.1202 53.8516 53.6004 53.3667 53.1507 52.9528 52.7731 52.6118 52.469 52.345 52.2398 52.1536 52.0865 52.0384 52.0096 52 52 52 52 51 50 49 48 47 46 45 44 43 42 41 40 39 38 37 36 35 34 33 32 31 30 29 28 27 26 25 24 23 22 21 20 19 18 17 16 15 14 13 12 11 10 9 8 7 6 5 4 3 2 1 0
0 1 2 3 4 5 6 7 8 9 10 11 12 13 14 15 16 17 18 19 20 21 22 23 24 25 26 27 28 29 30 31 31 31 31 31.0161 31.0644 31.1448 31.257 31.4006 31.5753 31.5753 31.4006 31.257 31.1448 31.0644 31.0161 31 31 31 31 31 31 31 31 31 31 31 31 31 31 31 31 31 31 31 31 31 31 31 31 31 31 31 30.4138 29.5296 28.6356 27.7308 26.8328 25.9422 25 24.0416 23.0868 22.1359 21.1896 20.2485 19.3132 18.3848 17.4642 16.5529 15.6525 14.7648 13.8924 13 12.083 11.1803 10.2956 9.43398 8.544 7.61577 6.7082 5.83095 5 4 3 2 1 0 0 1 1 0 1 0 1 1 0 0 1 1.41421 1 0 1 1.41421 1 0 1 2 3 4 5 5.83095 6.7082 7.61577 8.544 9.48683 10.4403 11.4018 12.3693 13.3417 14.3178 15.2643 16.1245 17 17.8885 18.7883 19.6977 20.6155 21.5407 22.4722 23.4094 24.3516 25.2982 26.2488 26.1725 26.0768 26.0192 26 26 26 26 26 26.0192 26.0768 26.1725 26.2488 25.9422 25.4951 25.0799 24.6982 24.2074 23.6008 22.8035 22.0227 21.2603 20.5183 19.799 19.105 18.4391 17.8045 17.2047 16.6433 16.1245 15.6525 15.2315 14.8661 14.5602 14.3178 14.1421 14.0357 14 14 14 14.0357 14.1421 14.3178 14.5602 14.8661 15.2315 15.6525 16.1245 16.1245 16.0312 16 16 16 16 16 16 16.0312 16.1245 16.2788 16.4924 16.7631 17 16.7631 16.4924 16.1555 15.8114 15.2643 14.7648 14.3178 13.9284 13.6015 13.3417 13.1529 13.0384 13 12.8062 12.2066 11.6619 11.1803 10.7703 10.4403 10.198 9.84886 9.48683 9.21954 9.05539 9 9 9.05539 9 9 8.94427 8.544 8.06226 7.61577 7.28011 7.07107 6.7082 6.32456 6.08276 5.83095 5.38516 5.09902 5 4.47214 4.12311 4 4 4 4 4 4 4 4 4 4.12311 4.47214 5 5 5 5 5 5 5 5 5 5 5 5 5 5 5 4.47214 4.12311 4 4 4 4 4 4 4 4 3.60555 3.16228 3 3 3 3.16228 3 3 3 2.82843 2.23607 2 2 2 2 2 2 2 2 2.23607 2.82843 3.60555 4.24264 5 5.83095 6.7082 7.61577 8.544 9.43398 10.2956 11.1803 11 10 9 8 7 6 5 4 3 2 1 0 0 1 2 3 4 5 6 7 7.28011 7.61577 8.06226 8.544 8.94427 9.43398 10 10.6301 11.3137 12.0416 12.8062 13.6015 14.4222 15.2643 16.1245 16.9706 17.6918 18.3848 19.105 19.8494 20.6155 21.4009 22.2036 23.0217 23.8537 24.6982 25.5539 26.4197 27.2947 28.178 29.0689 29.9666 30.8707 31.7648 32.6497 33.541 34.4384 35.3412 36.2491 37.1618 38.0789 39 39.9249 40.8534 41.7852 42.72 43.6578 44.5982 45.5412 46.4866 47.4342 48.3839 49.3356 50.2892 51.2445 52.2015 53.1601 54.1202 55.0818 56.0446 57.0088 57.9741 58.9406 59.9083 60.8276 61.7171 62.6099 63.5059 64.405 65.307 66.2118 66.4003 65.8027 65.215 64.6375 64.0703 63.5138 62.9682 62.434 61.9112 61.4003 60.9016 60.4152 59.9416 59.4811 59.0339 58.6003 58.1808 57.7754 57.3847 57.0088 56.648 56.3028 55.9732 55.6597 55.3624 55.0818 54.8179 54.5711 54.3415 54.1295 53.9351 53.7587 53.6004 53.4603 53.3385 53.2353 53.1507 53.0848 53.0377 53.0094 53 53 53 52 51 50 49 48 47 46 45 44 43 42 41 40 39 38 37 36 35 34 33 32 31 30 29 28 27 26 25 24 23 22 21 20 19 18 17 16 15 14 13 12 11 10 9 8 7 6 5 4 3 2 1 0
0 1 2 3 4 5 6 7 8 9 10 11 12 13 14 15 16 17 18 19 20 21 22 23 24 25 26 27 28 29 30 30 30 30 30 30.0167 30.0666 30.1496 30.2655 30.4138 30.5941 30.5941 30.4138 30.2655 30.1496 30.0666 30.0167 30 30 30 30 30 30 30 30 30 30 30 30 30 30 30 30 30 30 30 30 30 30 30 30 30 30 30 30 29.9666 29.0689 28.1603 27.2029 26.2488 25.2982 24.3516 23.4094 22.4722 21.5407 20.6155 19.6977 18.7883 17.8885 17 16.1245 15.2315 14.3178 13.4164 12.53 11.6619 10.7703 9.84886 8.94427 8.06226 7.07107 6.08276 5.09902 4.12311 3.16228 2.23607 1.41421 1 0 1 1 0 0 0 1 1 0 0 0 1 1 0 1 2 1 0 1 2 3 4 5 6 7 8 8.94427 9.84886 10.7703 11.7047 12.6491 13.6015 14.5602 15.5242 16.4924 17.4642 18.3576 19.2354 20.1246 21.0238 21.9317 22.8473 23.7697 24.6982 25.4951 25.318 25.1794 25.0799 25.02 25 25 25 25 25 25.02 25.0799 25.1794 25.2982 25 24.5967 24.1661 23.7697 23.4094 22.8035 22.2036 21.4009 20.6155 19.8494 19.105 18.3848 17.6918 17.0294 16.4012 15.8114 15.2643 14.7648 14.3178 13.9284 13.6015 13.3417 13.1529 13.0384 13 13 13 13.0384 13.1529 13.3417 13.6015 13.9284 14.3178 14.7648 15.2643 15.1327 15.0333 15 15 15 15 15 15 15.0333 15.1327 15.2971 15.5242 15.8114 16 15.8114 15.5242 15.2315 14.8661 14.4222 13.8924 13.4164 13 12.6491 12.3693 12.1655 12.0416 12 12 11.4018 10.8167 10.2956 9.84886 9.48683 9.21954 8.94427 8.544 8.24621 8.06226 8 8 8.06226 8 8 8 7.61577 7.2111 6.7082 6.32456 6.08276 5.83095 5.38516 5.09902 5 4.47214 4.12311 4 3.60555 3.16228 3 3 3 3 3 3 3 3 3 3.16228 3.60555 4 4 4 4 4 4 4 4 4 4 4 4 4 4 4 3.60555 3.16228 3 3 3 3 3 3 3 3 2.82843 2.23607 2 2 2 2.23607 2 2 2 2 1.41421 1 1 1 1 1 1 1 1 1.41421 2.23607 2.82843 3.60555 4.47214 5.38516 6.32456 7.2111 8.06226 8.94427 9.84886 10.7703 10.7703 9.84886 8.94427 8 7 6 5 4 3 2 1 0 0 1 2 3 4 5 6 7 8 8.544 8.94427 9.43398 9.84886 10.2956 10.8167 11.4018 12.0416 12.7279 13.4536 14.2127 15 15.8114 16.6433 17.4929 18.3576 19.105 19.799 20.5183 21.2603 22.0227 22.8035 23.6008 24.4131 25.2389 26.0768 26.9258 27.7849 28.6531 29.5296 30.4138 31.305 32.2025 33.1059 34 34.8855 35.7771 36.6742 37.5766 38.4838 39.3954 40.3113 41.2311 42.1545 43.0813 44.0114 44.9444 45.8803 46.8188 47.7598 48.7032 49.6488 50.5964 51.5461 52.4976 53.4509 54.4059 55.3624 56.3205 57.28 58.2409 59.203 60.1664 61.131 62.0967 63.0635 63.9531 64.846 65.7419 66.6408 67.2012 66.6108 66.0303 65.4599 64.8999 64.3506 63.8122 63.2851 62.7694 62.2656 61.7738 61.2944 60.8276 60.3738 59.9333 59.5063 59.0931 58.6941 58.3095 57.9396 57.5847 57.2451 56.921 56.6127 56.3205 56.0446 55.7853 55.5428 55.3173 55.109 54.9181 54.7449 54.5894 54.4518 54.3323 54.231 54.1479 54.0833 54.037 54.0093 54 54 53 52 51 50 49 48 47 46 45 44 43 42 41 40 39 38 37 36 35 34 33 32 31 30 29 28 27 26 25 24 23 22 21 20 19 18 17 16 15 14 13 12 11 10 9 8 7 6 5 4 3 2 1 0
0 1 2 3 4 5 6 7 8 9 10 11 12 13 14 15 16 17 18 19 20 21 22 23 24 25 26 27 28 29 29.0172 29 29 29 29 29.0172 29.0689 29.1548 29.2746 29.4279 29.6142 29.6142 29.4279 29.2746 29.1548 29.0689 29.0172 29 29 29 29 29 29 29 29 29 29 29 29 29 29 29 29 29 29 29 29 29 29 29 29 29 29 29 29 29 29 28.4605 27.5136 26.5707 25.632 24.6982 23.7697 22.8473 21.9317 21.0238 20.1246 19.2354 18.3576 17.4642 16.5529 15.6525 14.7648 13.8924 13 12.083 11.1803 10.198 9.21954 8.24621 7.28011 6.32456 5.38516 4.47214 3.60555 2.82843 2 1 0 0 1 0 0 1 1 0 0 0 0 1 1 0 1 1.41421 1 0 1 2 3 4 5 6 7 8 9 10 11 12 13 13.9284 14.8661 15.8114 16.7631 17.72 18.6815 19.6469 20.5913 21.4709 22.3607 23.2594 24.1661 24.7386 24.5153 24.3311 24.1868 24.0832 24.0208 24 24 24 24 24 24.0208 24.0832 24.1868 24.3311 24.0416 23.7065 23.2594 22.8473 22.4722 22.0227 21.4009 20.8087 20 19.2094 18.4391 17.6918 16.9706 16.2788 15.6205 15 14.4222 13.8924 13.4164 13 12.6491 12.3693 12.1655 12.0416 12 12 12 12.0416 12.1655 12.3693 12.6491 13 13.4164 13.8924 14.3178 14.1421 14.0357 14 14 14 14 14 14 14.0357 14.1421 14.3178 14.5602 14.8661 15 14.8661 14.5602 14.3178 13.9284 13.6015 13.0384 12.53 12.083 11.7047 11.4018 11.1803 11.0454 11 11 10.6301 10 9.43398 8.94427 8.544 8.24621 8.06226 7.61577 7.28011 7.07107 7 7 7.07107 7 7 7 6.7082 6.32456 5.83095 5.38516 5.09902 5 4.47214 4.12311 4 3.60555 3.16228 3 2.82843 2.23607 2 2 2 2 2 2 2 2 2 2.23607 2.82843 3 3 3 3 3 3 3 3 3 3 3 3 3 3 3 2.82843 2.23607 2 2 2 2 2 2 2 2 2 1.41421 1 1 1 1.41421 1 1 1 1 1 0 0 0 0 0 0 0 0 1 1.41421 2.23607 3.16228 4.12311 5 5.83095 6.7082 7.61577 8.544 9.48683 10.2956 9.84886 9.43398 8.544 7.61577 6.7082 5.83095 5 4 3 2 1 0 1 1.41421 2.23607 3.16228 4.12311 5.09902 6.08276 7.07107 8.06226 9.05539 9.84886 10.2956 10.7703 11.1803 11.6619 12.2066 12.8062 13.4536 14.1421 14.8661 15.6205 16.4012 17.2047 18.0278 18.868 19.7231 20.5183 21.2132 21.9317 22.6716 23.4307 24.2074 25 25.807 26.6271 27.4591 28.3019 29.1548 30.0167 30.8869 31.7648 32.6497 33.541 34.4384 35.3412 36.2353 37.1214 38.0132 38.9102 39.8121 40.7185 41.6293 42.5441 43.4626 44.3847 45.31 46.2385 47.1699 48.1041 49.0408 49.98 50.9215 51.8652 52.811 53.7587 54.7083 55.6597 56.6127 57.5674 58.5235 59.4811 60.4401 61.4003 62.3618 63.3246 64.2884 65.2533 66.1891 67.082 67.9779 67.424 66.8506 66.2873 65.7343 65.192 64.6607 64.1405 63.6318 63.1348 62.6498 62.1772 61.7171 61.2699 60.8358 60.4152 60.0083 59.6154 59.2368 58.8727 58.5235 58.1893 57.8705 57.5674 57.28 57.0088 56.7539 56.5155 56.2939 56.0892 55.9017 55.7315 55.5788 55.4437 55.3263 55.2268 55.1453 55.0818 55.0364 55.0091 55 54 53 52 51 50 49 48 47 46 45 44 43 42 41 40 39 38 37 36 35 34 33 32 31 30 29 28 27 26 25 24 23 22 21 20 19 18 17 16 15 14 13 12 11 10 9 8 7 6 5 4 3 2 1 0
